ply
format ascii 1.0
element vertex 1229
property float x
property float y
property float z
property uint8 red
property uint8 green
property uint8 blue
end_header
-3.029953 4.810552 2.251756 0 0 0
2.107393 3.580278 -0.560640 157 154 135
-18.443302 4.824323 5.921068 84 126 72
-0.176079 0.576195 -1.820430 139 113 88
-0.096138 0.733592 -0.660447 156 149 134
-3.326883 6.124265 0.724624 39 45 28
-2.897416 4.995208 2.624934 0 0 0
-0.274426 0.918527 -1.739794 113 100 91
-2.132699 5.436416 2.761477 154 159 163
-1.650925 1.934344 -1.396004 183 178 158
-2.847550 4.775037 3.418652 202 173 176
-1.569125 2.192024 -1.325585 154 148 115
-2.807393 4.791915 3.434355 128 87 88
-1.545153 2.111355 -1.327101 154 148 115
2.105637 2.646935 -1.376782 195 189 177
1.350626 3.636808 -1.216519 94 89 80
-1.485059 0.335665 -1.801379 74 81 40
-0.056627 0.343108 -1.924657 63 34 27
-1.046418 0.389984 -1.792688 156 121 105
-1.126277 0.627677 -1.722245 109 80 50
-0.264307 0.641843 -1.780182 117 110 72
-0.887765 1.160884 -1.666273 124 118 67
-0.937471 1.613668 -1.521026 104 105 53
0.839116 1.851076 -1.665021 129 122 116
1.613053 2.673835 -1.519134 152 145 139
-3.898615 6.413007 5.640665 30 34 24
-0.058949 0.701779 -0.785813 75 67 55
0.257208 1.270832 -0.525861 157 142 119
-1.894963 4.656865 3.423075 71 75 87
-0.203614 0.797154 -0.503285 88 76 64
-0.324631 0.929539 -0.361667 138 131 123
-3.453125 5.992938 0.569011 86 101 60
-13.558279 5.921785 8.368963 70 80 83
2.051864 4.510539 0.675838 204 211 217
-0.142994 1.117571 -0.671585 25 22 17
0.243150 6.557218 1.408601 86 115 149
-0.422801 0.732407 -1.800396 56 54 29
-2.965089 5.019504 2.335342 107 137 183
-0.287538 1.022513 -1.292886 118 109 92
-3.119576 5.763152 2.695250 228 237 244
-1.206250 0.573664 -1.728370 124 108 78
0.726100 0.659033 -1.940384 131 122 113
-0.310157 0.977198 -1.722921 67 60 41
0.855163 0.795873 -1.915097 142 134 130
-0.998828 0.784578 -1.698872 99 92 48
-0.351787 0.486608 -1.853876 154 145 120
-0.606840 0.869131 -1.730326 146 115 86
-0.107808 1.590092 -1.141022 73 66 58
0.367884 1.027740 -1.784541 106 101 92
-1.778343 6.079810 -0.096361 28 44 9
0.368162 1.022889 -1.780381 106 101 92
0.198814 1.081807 -0.364963 62 53 43
1.296953 1.106782 -1.892859 130 123 117
-3.507627 5.377071 0.190078 79 66 38
1.037318 1.199638 -1.810236 149 141 138
-1.765665 5.657712 2.657823 140 142 148
-0.216053 1.075626 -1.603870 146 139 121
-0.589273 1.193668 0.621662 30 28 33
-1.326829 1.323811 -1.561940 134 126 77
-1.029905 3.233488 -0.773353 66 79 29
-0.528065 1.222895 -1.601929 99 96 79
-0.530210 1.230531 -1.603582 99 96 79
-10.849270 3.941147 5.040632 252 252 252
-2.001958 1.452436 -1.470930 175 170 128
0.007877 1.432685 -1.096941 26 25 21
-1.234295 1.545360 -1.537839 147 139 102
0.230963 0.849709 -0.566850 53 40 29
-1.991791 1.604457 -1.419586 90 86 47
-1.301023 1.687358 -1.463858 166 156 112
0.354535 1.092845 -0.932280 126 112 85
-0.844154 1.727120 -1.512868 84 94 41
0.331249 1.133307 -0.534340 109 102 85
1.896730 2.360468 -1.715659 135 128 122
1.492321 2.686569 -1.522125 104 97 91
0.614182 2.629207 -1.418760 151 144 136
-3.759638 4.823790 3.351337 39 63 107
-1.460318 3.206484 -1.127227 100 109 54
-0.228555 1.081033 -1.519398 55 46 37
-1.605091 3.514253 -1.075660 158 153 122
0.301881 1.186313 -0.743380 116 109 91
0.041102 0.423731 -0.940314 107 96 84
-1.955413 6.230841 1.680137 0 0 0
-2.866439 4.516929 -0.598382 215 224 226
-0.523783 1.073808 -0.482354 95 91 79
1.826502 4.182817 -0.454934 153 143 131
-0.593298 1.132500 -0.430836 163 153 141
0.026301 0.820533 -0.454156 73 65 55
-2.270128 5.968830 0.088638 121 139 91
-3.735426 4.424201 3.410296 0 0 0
1.144654 4.300162 -0.201858 196 172 147
-0.208977 1.134414 -0.825173 54 42 33
0.017504 6.795022 0.792378 178 179 180
0.267776 0.475562 0.115099 157 143 132
-2.789303 4.807553 3.457807 123 83 82
-2.910424 5.193932 1.517866 151 121 115
-0.239789 1.018879 -1.725120 138 131 115
-0.610699 6.190974 1.875378 43 105 192
0.389756 1.119001 -1.042376 128 118 105
-0.240521 0.322245 -1.908412 119 103 88
0.168694 0.549286 -0.960144 17 16 10
-0.426645 0.829271 -1.721682 131 104 77
0.126594 0.642899 -0.840465 50 48 32
0.967045 0.993267 -1.870721 121 116 112
-0.168266 0.977670 -1.739245 184 191 173
-1.710420 1.152007 -1.544373 170 168 129
-1.727218 1.182032 -1.552377 170 168 129
-2.629706 4.995187 2.681175 172 174 176
0.709874 1.741094 -1.672379 82 75 69
-1.121396 1.601421 -1.480494 124 105 69
-0.812960 1.987144 -1.422125 139 141 84
-0.952204 2.958661 -1.329043 93 104 41
-3.336644 4.331551 3.056641 43 64 109
1.483840 3.122627 -1.464769 89 81 75
-3.048088 4.723349 3.452225 163 178 183
-1.041193 2.840263 -1.205723 112 124 60
-1.580945 3.078659 -1.113720 119 121 69
-0.266774 0.443250 -1.908379 135 133 112
-2.106147 3.122195 -1.084013 160 154 128
-0.176535 1.268289 -1.104377 36 28 16
-2.474094 3.299320 -1.038757 191 185 169
-0.176535 1.268289 -1.104377 36 28 16
-0.284418 1.553636 -0.900677 115 97 77
-17.970041 7.618109 5.671388 21 25 34
-1.590025 4.046315 -0.954509 119 110 71
-1.769869 5.354484 1.944338 0 0 0
-0.412124 1.019680 -0.791955 133 124 107
-1.936820 5.079533 -0.589572 154 140 92
-0.074411 0.756076 -0.390095 85 77 66
-0.723438 1.621712 -0.185062 76 77 67
-2.455722 4.956175 3.081720 0 0 0
-0.330298 1.025142 -0.240677 111 106 103
-2.896329 4.752029 3.313582 0 0 0
-0.951055 1.964887 -0.006148 89 88 84
0.478073 0.469199 -0.081367 66 70 72
-0.469123 1.504753 -0.092907 196 197 189
-1.542220 2.927559 0.404851 126 129 123
-0.181608 1.031306 -1.366587 64 55 40
-1.083826 7.037944 1.164697 60 69 66
0.286030 1.076151 -1.044461 30 24 18
0.110375 0.427778 -1.907921 111 101 92
-2.291275 5.500425 1.336453 0 0 0
-1.369436 0.507951 -1.757902 104 98 69
-1.781383 5.385071 1.806845 0 0 0
1.121056 0.632910 -1.988103 121 114 108
-1.197693 0.757808 -1.703181 217 215 189
0.351705 0.998049 -1.769686 124 119 113
-1.822235 5.383222 3.135490 153 156 161
-0.905768 1.148455 -1.660053 110 97 58
-3.285000 4.622058 3.351601 0 0 0
0.139831 1.192595 -1.712443 106 99 89
-1.498518 1.384516 -1.516713 108 117 68
-15.061165 6.443488 9.426180 231 238 240
-1.492206 1.366743 -1.513195 108 117 68
0.137887 1.600387 -1.613934 47 47 24
-1.166284 1.550796 -1.536522 166 161 130
-0.141284 1.074890 -1.712738 132 125 99
1.250533 1.755898 -1.720473 109 104 100
-12.639866 6.445215 2.957446 187 179 182
-0.798898 1.853832 -1.499305 149 152 104
-2.238007 5.964992 1.654588 0 0 0
0.923960 1.937281 -1.639093 155 148 142
-2.238007 5.964992 1.654588 0 0 0
-1.958363 2.321385 -1.291952 186 185 163
-1.438536 5.784600 2.011139 51 64 95
-0.527170 1.203670 -1.209106 105 101 89
-19.250935 4.062895 4.316912 45 62 72
-1.846010 2.635804 -1.314230 146 136 103
-18.002966 7.808619 5.787038 15 22 21
1.408719 2.775004 -1.521253 102 93 86
-3.362798 4.310178 2.153580 122 136 146
0.315722 1.044219 -1.012706 53 45 34
-1.857387 3.339095 -1.053552 199 191 170
-0.249424 1.507215 -0.929178 73 66 53
1.434848 3.573699 -1.149173 143 138 134
-1.780836 4.096574 -0.897789 74 82 30
-4.201367 4.294107 3.429944 32 38 24
1.045522 4.223300 -0.964090 154 143 137
-3.148509 4.686666 3.324856 0 0 0
-3.023594 4.749969 -0.513744 73 88 45
-3.041988 4.726631 3.318922 0 0 0
-1.383374 5.845290 -0.412008 59 62 32
-2.900102 4.867008 3.404976 65 70 99
0.141763 0.784338 -0.466458 168 137 101
-2.809999 4.819040 3.376228 189 175 188
4.101022 7.757525 -0.275698 63 75 43
-2.809999 4.819040 3.376228 189 175 188
0.110288 0.766943 -0.420224 164 142 109
-3.090016 4.633862 3.530020 72 87 122
-0.088709 0.761752 -0.367871 73 64 55
4.153190 7.489804 0.047421 117 103 74
0.077199 1.014113 -1.775851 149 145 136
-0.149963 0.773891 -0.262028 177 170 154
0.050019 0.786099 -1.779186 193 188 172
-2.528158 5.660815 0.843573 44 51 46
0.093095 1.225752 -1.379273 64 57 47
-0.257358 6.298182 2.036331 61 107 175
-1.018059 3.868113 -0.957892 46 42 15
-1.005614 5.940821 2.154419 62 116 165
-1.534929 6.414662 -0.036260 8 21 0
0.986683 0.337107 -2.076478 219 214 210
-1.657297 6.137704 0.205706 72 91 46
-1.129539 0.311759 -1.790499 124 121 106
-27.263538 8.957002 3.150260 115 101 95
1.136832 0.439613 -2.039231 108 99 92
-21.400299 4.057148 2.460977 122 126 129
1.045820 0.676878 -2.063859 112 105 99
-0.969711 0.503170 -1.785357 187 174 159
0.304995 0.609690 -1.883878 59 58 56
-18.550385 8.487700 4.783061 133 125 108
-0.865568 0.607575 -1.764313 226 221 203
-0.988715 0.653764 -1.770030 119 105 76
0.202752 1.051249 -0.340224 87 88 83
-0.701233 0.666993 -1.776756 128 117 97
-1.901788 5.485620 1.892404 0 0 0
-0.202116 0.688659 -1.812864 179 170 141
-20.078835 4.464160 4.601680 45 64 68
1.258609 0.810173 -1.997373 96 86 84
-1.626320 0.668712 -1.645066 98 90 51
-19.896006 6.302231 6.579057 27 26 2
-1.590552 1.047740 -1.598590 97 89 65
-3.297426 4.922744 3.469742 138 153 182
0.142314 1.097524 -1.738444 133 125 116
-1.426222 1.154574 -1.573425 135 120 89
-3.182443 4.621544 3.333418 0 0 0
-0.643330 1.221379 -1.620026 135 133 92
-3.357643 4.574208 3.352458 0 0 0
0.236594 1.331035 -1.718732 189 182 174
-2.974580 4.713710 3.331710 0 0 0
-1.258098 1.408701 -1.563074 136 127 94
-3.230881 4.623339 3.406331 0 0 0
0.093519 1.228453 -1.593816 145 142 127
-3.114590 4.657799 3.473865 65 79 90
-1.804551 1.405406 -1.456047 119 110 75
-5.398900 5.622906 4.822844 0 0 0
0.002600 1.107746 -1.514714 165 162 155
-4.117767 4.976742 4.252386 68 78 88
0.090738 1.223895 -1.495294 158 153 141
-0.467278 1.125545 -1.404971 119 115 104
-2.542044 6.951123 5.114962 67 70 87
-0.467330 1.129520 -1.402109 119 115 104
-0.382972 1.067954 -1.370051 162 158 146
-0.057832 1.030046 -1.351674 178 172 158
-0.159041 1.039763 -1.284663 147 138 121
-0.220796 1.070109 -1.279407 114 107 89
-9.833883 4.670230 6.974667 75 90 93
-1.430708 2.588804 -1.272568 150 155 97
-0.121293 1.387956 -1.184548 61 61 53
-0.309896 1.194323 -1.119097 145 137 125
-2.322976 3.203357 -1.069290 201 195 183
0.304328 1.038467 -0.964003 173 165 152
-3.056021 4.509214 -0.610732 62 66 33
-3.011994 4.420249 -0.611040 62 66 33
-0.061989 0.611766 -0.723760 172 165 149
-18.576046 5.015333 5.951273 40 70 57
-2.238650 4.867585 -0.600704 88 104 42
-21.885599 4.385596 1.632178 19 22 27
-0.155292 0.727985 -0.660735 151 144 128
-1.789038 5.451665 -0.470699 123 139 71
-17.995790 4.917045 5.897450 87 132 103
-1.902300 5.387553 -0.432375 58 77 31
-2.637174 5.264632 -0.273562 204 204 168
0.344612 1.062018 -1.030278 114 108 98
-2.413145 6.106695 0.012499 82 77 35
0.078621 1.260435 -1.638232 60 54 47
-0.068922 0.801423 -0.439553 103 93 78
-1.632303 1.629994 -1.416761 71 63 29
-2.129173 6.149001 0.088672 84 109 69
-0.218453 0.770443 -0.352047 166 153 145
-0.323248 1.068270 -1.576942 167 160 144
-0.840306 1.737354 -0.189271 123 119 108
-0.034559 1.091925 -1.540331 158 150 139
-0.830328 1.836254 -0.157986 67 69 63
0.212999 1.390623 -1.665823 131 123 110
-0.009634 0.788545 -0.322360 181 175 163
0.161256 1.110591 -0.534766 106 101 96
-3.485878 6.340951 0.656306 57 62 41
-2.526599 5.659265 0.650976 25 34 19
-22.107286 4.643338 4.800249 19 30 42
0.175635 0.633810 -0.128296 162 143 128
0.012465 1.427898 -1.096511 21 23 13
0.607577 6.714425 1.485682 110 144 174
0.481342 0.496828 0.307223 166 164 167
-3.689587 5.281964 4.344093 67 75 98
-0.352326 6.233583 2.268868 75 94 154
-0.460791 0.247304 -1.880390 216 202 191
0.033629 0.351798 -1.923298 213 203 193
-0.130097 1.085261 -1.647675 45 42 35
-0.121170 0.405172 -1.884715 224 216 205
-0.182986 0.382737 -1.871862 75 71 40
-14.209894 7.032159 3.234280 190 185 165
0.459761 0.501778 -1.968018 181 172 165
-0.128751 0.410043 -1.862214 220 214 202
-0.128585 0.408054 -1.862569 220 214 202
0.440723 0.529330 -1.956580 214 204 202
0.474974 0.531451 -1.941600 208 206 201
-0.017616 0.529492 -1.884164 180 175 153
0.754742 0.571663 -1.962405 209 202 194
0.121334 1.629509 -1.602380 65 64 41
0.372561 0.592111 -1.897236 199 195 189
-0.080136 1.122382 -1.622293 84 76 64
0.892581 0.600544 -1.954151 218 211 203
-0.669678 4.130480 -1.008899 67 63 52
0.615716 0.635832 -1.929040 179 176 165
-2.685417 5.714078 2.092317 0 0 0
-0.114295 0.632038 -1.845970 87 81 59
-1.153301 0.583798 -1.726716 223 210 180
-2.225000 5.131874 2.603678 164 165 170
-1.010615 0.641393 -1.752962 163 162 132
0.176867 0.602555 -1.843413 206 202 191
-1.043846 0.635444 -1.738522 177 170 144
-0.596738 0.729037 -1.758060 133 119 84
0.762123 0.782373 -1.901827 97 88 79
-8.195064 3.059553 5.745054 227 234 244
-0.639527 0.816333 -1.732886 186 152 132
-0.168806 0.852107 -1.761017 195 190 178
-0.180282 3.033326 -1.299874 64 57 49
-0.703499 0.876109 -1.718261 138 95 79
-2.858474 5.047864 -0.007357 105 91 62
1.055709 0.973275 -1.905667 100 93 87
-2.936175 5.142635 0.011042 105 91 62
-0.858852 0.954858 -1.701900 139 90 71
-2.176213 6.407473 0.497072 49 65 22
-1.311509 0.942994 -1.651493 148 139 100
-3.295277 5.764510 0.772795 11 10 6
0.883250 1.013222 -1.863801 115 111 103
0.083552 0.657987 -0.747014 107 97 80
0.056537 0.975997 -1.751583 119 114 110
-14.268551 7.055211 2.587059 155 148 144
-0.302803 0.964617 -1.703598 120 110 85
0.012425 1.010811 -1.736990 200 197 181
-1.508817 1.045209 -1.611684 122 113 74
-0.599739 1.063466 -1.684747 105 80 60
-1.526518 1.055343 -1.596827 197 187 156
-1.526294 1.047590 -1.595638 197 187 156
-1.556373 1.061305 -1.595629 190 181 150
-1.717088 1.033571 -1.572134 175 175 141
-0.071998 0.900389 -1.739355 59 61 50
-1.711694 1.177251 -1.556476 173 170 131
-0.075208 1.029682 -1.432009 92 86 70
-0.622377 1.190411 -1.641915 86 86 50
-1.200718 4.006150 -0.940246 54 57 26
-0.590726 1.230551 -1.622857 191 185 164
-1.223178 1.403126 -1.574727 132 131 110
-2.654940 5.533949 0.806041 15 18 11
-1.003538 1.583142 -1.546193 114 110 75
-0.214378 1.073942 -1.476628 121 113 102
-0.094581 0.876176 -0.591533 29 24 21
-1.803772 1.652349 -1.449074 101 99 55
-0.011964 0.784037 -0.521384 53 48 42
0.780418 1.725052 -1.663337 90 83 77
-18.872461 8.684937 5.008892 132 126 98
-0.430626 1.076663 -1.390805 159 155 143
-0.294124 1.036591 -1.379141 157 151 139
2.024348 2.608155 -1.626243 86 79 73
1.246673 2.758738 -1.499712 115 106 99
-0.336683 0.526201 -1.860274 56 40 27
-0.256198 1.270707 -1.117437 67 60 44
-0.376879 0.587559 -1.839176 149 146 121
-0.232154 1.260353 -1.102812 131 124 108
0.281291 2.710852 -1.437011 48 40 37
-2.217714 2.883624 -1.129557 116 113 77
0.104007 1.424418 -1.331249 44 39 33
-2.369040 3.026684 -1.105281 100 101 74
-0.767055 4.790900 -0.848804 77 78 36
-2.374756 3.042369 -1.104468 100 101 74
-1.492860 4.000846 -0.942143 116 113 82
-0.488833 1.237999 -1.018443 169 152 124
-1.859495 5.828175 -0.116979 72 81 48
-2.151323 3.336370 -1.050954 180 174 149
-3.169617 4.546339 -0.118611 47 38 8
1.909750 2.569384 -1.280021 39 31 32
-3.084989 5.592320 0.454654 78 72 50
1.932810 2.834336 -1.139176 68 64 60
-2.298367 6.295193 0.798180 19 29 4
1.699124 2.891811 -1.114285 63 58 54
-2.143762 6.842826 0.979700 8 15 2
-1.171038 4.427820 -0.909210 186 185 137
1.248187 3.791293 -0.961058 119 116 110
-23.329647 7.807021 2.510833 33 32 30
1.391954 3.553885 -0.911887 172 165 155
-24.508224 8.250961 2.908861 23 25 20
-2.573415 4.869208 -0.521219 42 60 10
-14.799247 7.170691 2.349058 85 83 88
1.455790 4.300828 -0.698404 53 44 36
-34.570141 9.025192 5.088994 48 60 53
-0.142701 0.697873 -0.561135 171 164 148
0.232187 1.171446 -0.491918 117 102 86
-2.108759 5.836395 -0.127305 120 143 75
0.004285 0.814779 -0.377784 60 53 46
-0.065797 0.782306 -0.361349 154 146 133
0.131527 0.737248 -0.370395 124 100 74
-0.083116 0.192801 0.306910 222 229 239
0.131527 0.737248 -0.370395 124 100 74
2.069666 4.823027 0.156744 161 150 135
-0.300035 0.600594 -0.150783 220 216 211
0.169716 3.195699 -1.348137 59 52 44
-0.094815 6.790194 0.815841 43 48 51
-0.776091 0.722805 -1.749751 53 38 17
-3.280226 6.279619 0.979806 74 76 62
0.112999 1.265644 -1.327324 96 89 79
0.200875 0.629513 -0.105134 154 135 117
-0.854152 4.912052 -0.810463 40 46 8
0.234127 0.602114 -0.084003 124 99 75
-1.305063 4.581918 -0.808055 85 85 35
0.233038 0.601304 -0.087180 124 99 75
-0.017524 1.689614 -1.079674 29 24 13
0.274029 0.591033 -0.061619 175 155 134
-3.513575 4.949032 0.064435 134 128 104
0.242996 0.562986 -0.021539 93 79 67
-14.703786 6.773556 1.458688 50 72 10
-0.608410 6.347671 1.460054 66 101 150
-2.352277 6.422849 0.920539 34 39 19
0.735649 0.330197 0.079489 66 64 71
-2.896506 5.618365 0.764065 63 65 51
2.799888 7.394324 2.356158 96 105 120
-13.783138 6.665387 1.876443 129 130 134
-0.703249 6.239341 2.377611 199 220 143
-13.502908 5.886734 1.679339 122 123 118
-1.336326 1.179979 -1.539816 165 152 118
-1.971279 2.717475 -1.195033 135 129 104
-1.096703 2.155707 -1.388458 85 106 42
-0.104172 0.818958 -0.241156 68 61 52
-1.112476 2.517836 -1.459166 85 106 42
0.857580 2.564470 -1.425223 123 114 107
-0.579824 6.564903 1.118131 27 33 49
-3.408086 5.218338 3.680568 0 0 0
-0.776379 0.526635 -1.773322 134 124 112
-4.455535 4.825248 3.835320 33 36 27
-0.263348 0.909783 -0.642536 48 43 37
-0.173966 0.793473 -0.264815 165 157 138
-12.493870 3.291592 0.797273 175 175 174
-0.615875 0.408769 -1.850617 98 97 53
-0.098147 1.275985 -1.209521 79 80 75
0.074754 1.731754 -1.581348 174 177 161
-0.145275 1.131098 -1.217200 79 80 75
-1.631313 5.526763 -0.460596 104 130 81
-2.528290 4.995693 -0.516537 88 107 42
0.277733 2.990029 -1.347911 83 78 74
-0.728654 1.792144 -0.001600 180 177 172
-0.023748 3.233803 -1.247190 79 75 70
-1.424778 0.362833 -1.747731 98 100 53
0.303048 1.047482 -0.947392 125 119 109
-0.342984 0.436288 -1.861824 128 109 82
-2.613092 5.631059 0.223671 160 166 163
-1.132927 1.476001 -1.582587 181 168 148
-1.113475 3.977470 -0.940485 52 49 30
-0.290596 1.301056 -1.019419 64 62 50
-0.960159 4.334996 -0.920613 88 91 44
2.069215 3.392130 -1.073986 111 104 98
-1.280892 3.328948 -1.131576 61 58 37
-0.419538 1.079072 -0.742171 140 131 116
-2.589997 5.177105 1.110959 27 33 45
-1.225096 2.791869 0.081751 66 77 45
-2.934298 5.304766 1.942670 0 0 0
-1.418458 5.894112 2.433671 61 109 165
-0.214180 1.082172 -1.539021 96 93 88
-0.368315 0.548060 -1.788294 111 118 67
-4.914648 5.083018 0.877917 0 0 0
-1.358107 0.875445 -1.656498 156 147 130
0.098236 1.426304 -1.616726 78 81 70
-0.915844 1.465208 -1.569692 142 137 114
0.134571 0.804336 -0.439671 182 142 97
-1.179286 4.169847 -0.907895 131 133 81
-0.895095 1.831914 -1.531530 106 117 61
-0.890106 0.232764 -1.829506 178 175 170
0.828910 4.543437 -0.761910 167 161 147
-0.060203 1.039791 -1.325081 168 162 146
0.112806 2.495664 -1.441514 158 154 153
1.444353 2.218419 -1.578287 141 132 125
-1.956035 0.796031 -1.570593 97 89 50
0.032922 0.778791 -0.451736 154 132 109
-1.917352 2.299817 -1.261438 143 137 124
-0.459174 1.193412 -0.879258 54 46 35
0.330455 0.610124 0.232204 117 116 112
-0.461698 1.158853 -0.880261 54 46 35
-4.638382 4.496826 1.126040 35 50 45
2.262864 3.074928 -1.088967 199 196 191
-4.266059 4.508079 1.607978 90 105 108
1.194564 4.078512 -0.962776 139 130 123
-1.173128 0.647684 -1.691139 155 152 132
1.394292 4.474800 -0.803282 41 38 32
1.196600 4.114508 -0.616489 169 160 148
-1.854576 0.690387 -1.582036 99 80 51
-0.425815 1.012673 -0.550808 149 137 121
-1.938262 0.743462 -1.518476 201 143 97
-0.534586 1.228005 -0.291315 177 172 159
0.342387 0.459435 0.058082 45 52 68
0.432038 1.872508 -1.612637 117 113 110
0.302411 6.602576 1.669253 56 75 105
0.357213 2.054275 -1.556155 136 133 128
-1.570117 5.784202 1.639685 228 210 196
0.061692 1.335065 -1.539701 97 92 88
-0.000284 6.409454 2.217008 57 123 201
-1.334618 0.871458 -1.634574 195 192 176
-1.375364 0.530390 -1.746210 99 104 60
-1.821834 5.695062 2.049274 136 116 125
-0.403663 3.078025 -1.268386 160 159 157
-2.190525 0.994560 -1.431288 99 53 7
-1.802076 5.612668 2.015495 136 116 125
-0.713262 2.533861 -1.336455 94 103 76
-0.041809 0.574758 -1.841786 78 79 41
-2.833285 4.524364 -0.588451 229 241 241
-1.658392 1.513680 -1.493955 153 144 115
0.261652 0.743433 -0.284958 167 134 99
1.475847 1.774397 -1.714785 105 98 92
-0.929772 2.159822 0.068971 175 174 169
1.301353 1.873932 -1.706775 179 170 161
-1.622524 2.551548 -1.262496 113 103 54
-1.688933 3.049605 -1.195934 179 174 153
1.360850 3.459456 -1.359969 158 149 134
-5.190821 4.455092 1.593735 91 111 109
-0.073859 1.041300 -1.714077 93 91 63
-1.997053 3.358940 -1.076141 188 184 172
-0.427031 1.222148 -0.975383 130 99 73
0.104733 1.235351 -1.688792 143 142 138
1.733026 3.494282 -1.396558 83 76 70
-2.780712 4.660685 -0.586599 210 218 220
-1.205921 0.958651 -1.625365 125 121 95
-2.783671 4.665068 -0.586251 210 218 220
0.009878 0.867673 -0.607516 91 72 58
-0.627913 1.251948 -0.436763 81 75 61
1.949632 3.662303 -0.697946 44 43 38
-1.645216 1.134240 -1.539043 178 178 143
-2.403064 5.669330 -0.139863 164 149 108
0.297254 1.251413 -0.644242 189 178 170
2.792521 6.521862 -0.166661 99 105 73
-2.271184 1.241036 -1.195235 164 137 79
-2.687007 5.451094 1.246293 21 30 39
0.234393 1.169536 -0.492802 162 154 133
-2.609907 5.431755 1.265956 21 30 39
-0.073524 0.760442 -0.545971 141 135 121
-1.186627 6.099808 1.416441 35 97 169
0.196636 0.907230 -0.312089 179 168 147
-2.437638 5.457803 1.379818 198 168 159
0.155060 0.952616 -0.262127 100 96 85
-0.835312 6.236251 1.871036 45 100 171
0.200455 0.900028 -0.249224 163 151 135
-0.371695 6.393343 2.181388 62 100 153
-0.351047 6.178791 2.089674 62 100 153
0.335537 0.684561 -0.047198 123 93 65
-0.984694 6.077609 2.669721 180 200 216
-19.814388 7.824393 1.837255 128 140 142
0.536776 0.619114 -1.922235 147 140 132
-5.347653 4.560249 1.740150 84 104 102
-1.306634 1.048801 -1.621994 117 126 67
-2.476597 5.547933 1.906165 168 180 192
-1.177365 1.321441 -1.565942 191 189 164
-4.321879 4.161929 1.691952 104 114 111
-0.455992 1.144585 -1.562161 142 144 105
-0.313794 0.486424 -1.837686 217 213 203
-0.105887 1.085031 -1.468915 130 121 106
0.050169 1.057811 -1.719111 184 182 168
-1.693519 1.627601 -1.425396 95 90 50
-0.038099 1.119282 -1.703443 216 211 207
-0.350162 0.357513 -1.886688 98 85 66
-1.693519 1.627601 -1.425396 95 90 50
0.152169 1.645169 -1.607247 92 97 75
-1.473088 1.781390 -1.439321 187 177 152
0.295456 1.975698 -1.574227 191 187 186
-1.962299 2.106045 -1.272205 85 83 23
0.814243 1.746857 -1.646856 122 115 107
0.511424 2.428161 -1.518909 77 73 69
-1.127992 1.954082 -1.329666 73 93 31
0.516010 2.414553 -1.514404 77 73 69
-0.270921 1.087786 -1.211291 92 83 76
-0.267639 1.059650 -1.680096 206 207 197
-2.070169 2.371568 -1.247789 178 172 156
-0.662670 0.706379 -1.743102 220 213 190
1.596494 3.804528 -1.336514 78 71 63
-0.879679 0.471129 -1.779516 195 181 176
1.391509 3.601107 -1.033220 105 102 97
-1.060797 0.507615 -1.764052 188 184 159
-2.045447 4.500691 -0.786608 159 159 94
0.079570 2.624422 -1.416866 97 93 92
-2.023604 4.415843 -0.777555 159 159 94
-1.169998 0.593942 -1.720551 100 94 60
-1.277047 4.586295 -0.806362 98 107 44
-1.362281 0.394650 -1.728386 81 87 36
1.666116 3.753916 -0.945358 150 140 130
-0.301567 1.272390 -1.019094 103 97 88
-1.912310 5.530544 -0.505457 73 88 49
-1.971012 5.963833 0.012058 41 60 29
-2.070175 5.400705 -0.437631 93 97 64
-3.258284 5.112578 -0.064134 186 174 148
1.996286 8.657931 0.920318 65 70 68
1.832625 4.854378 -0.615857 176 167 155
-3.850806 5.175193 0.103563 183 178 152
2.043254 4.917502 -0.165585 184 168 145
-2.624171 6.028808 0.374574 101 118 87
2.029479 4.863897 -0.166487 184 168 145
-3.810946 5.531026 0.813762 56 76 64
-2.830530 5.961097 0.376040 37 50 21
-2.584743 5.592876 0.793902 193 196 199
-4.083101 4.461689 1.399183 38 55 53
-2.115987 5.641255 1.371462 235 202 193
-4.222014 4.813054 2.188892 52 71 75
-1.019767 1.161853 -1.627727 87 92 50
-0.590681 6.257687 1.545176 208 213 219
-1.823797 1.373664 -1.503322 109 100 68
0.979400 6.921861 2.138428 44 101 170
-25.371271 8.843966 3.497596 93 103 94
0.221151 0.474985 0.285255 74 77 75
-2.455382 5.349436 1.921609 227 234 244
0.452646 6.634778 2.374257 85 164 213
-0.860426 0.309428 -1.836779 108 62 46
-1.884431 5.265522 -0.379022 109 130 75
0.019648 0.602975 -1.849972 137 130 114
0.449635 0.719692 -1.878161 105 98 88
-2.576828 5.366690 -0.171395 190 175 147
-0.055225 0.715595 -1.822528 149 142 126
-1.331374 3.417076 -0.772892 72 80 30
-0.225743 0.768879 -1.767819 208 202 188
-11.815559 5.992230 2.444613 173 166 148
-0.737756 1.067060 -1.683027 104 104 54
-0.436230 1.042543 -0.410440 92 90 81
-0.886791 1.142087 -1.655194 120 113 65
-29.159914 8.280934 5.587799 204 203 199
-0.001659 1.138342 -1.644601 136 130 116
-30.867447 8.770801 5.945544 204 203 199
-0.062007 1.119545 -1.580650 73 63 51
-1.300883 1.279019 -1.530919 106 97 65
-1.928646 1.500355 -1.471266 165 160 124
-0.274462 1.109496 -1.217061 15 15 10
-1.803725 1.625715 -1.423981 123 116 72
-1.521232 0.635431 -1.682135 30 31 4
-1.332218 1.872738 -1.407080 104 102 51
0.081719 1.209913 -1.488557 102 98 85
-0.270730 1.047212 -1.289678 148 142 120
-25.288269 3.825599 4.532863 30 36 48
-2.074324 2.108116 -1.300014 71 82 24
0.308137 0.680372 -0.078087 60 45 38
-1.370758 0.402493 -1.731783 52 51 21
-0.211936 1.151864 -1.174781 131 118 98
-1.766056 2.699611 -1.198057 192 189 171
-3.966019 5.427664 0.578369 8 9 3
-0.404682 1.059517 -0.338763 60 58 59
-1.596731 3.090353 -1.213553 177 178 145
-27.556387 12.320842 6.473191 86 89 79
-2.203149 3.169265 -1.110107 187 182 159
-1.428125 3.090165 -1.117642 97 107 46
-4.154465 4.714235 4.084498 142 148 148
-2.121700 3.631856 -0.960777 91 94 41
-1.287688 0.331725 -1.785038 119 100 85
-2.183776 3.853802 -0.882868 138 142 76
-2.279141 4.515643 -0.721513 142 140 79
-2.414936 4.818038 -0.427872 57 70 40
-2.885067 4.546355 -0.593657 208 217 219
-0.352605 1.295677 -0.803815 22 21 16
2.490110 3.996552 -1.025764 59 54 50
-31.883898 4.694300 5.083291 236 239 232
-2.117083 0.867099 -1.623474 65 53 37
-0.157745 0.728693 -0.611865 143 133 118
-6.945388 2.440840 3.965888 239 244 249
1.852660 4.313617 -0.561096 68 64 56
0.004663 3.006949 -1.322438 61 56 50
-0.347939 1.032658 -0.498506 50 49 44
0.374067 1.074049 -1.015403 19 16 4
-0.558663 1.214225 -0.772685 99 84 63
-2.818616 5.271472 -0.059883 97 91 57
-0.399772 1.192449 -0.957947 122 102 76
-2.515307 5.626493 0.014052 104 106 67
0.351330 1.134007 -0.864350 116 107 90
-2.935606 5.623567 0.098344 122 117 80
-1.876757 5.896861 -0.225724 110 130 78
0.156923 1.109069 -0.342902 46 36 34
-2.741029 5.478621 -0.159107 187 177 145
-1.755383 5.593145 2.021276 68 53 54
-0.608397 6.540756 0.363025 90 106 70
-0.225561 0.835026 -0.477430 49 41 28
-0.488188 0.219142 -1.892291 85 67 54
-1.165373 6.269703 -0.034983 116 145 89
-20.244663 8.368989 2.544755 37 38 40
-2.184794 6.151383 0.060932 69 92 48
-0.353484 0.567557 -1.795308 40 46 23
-2.202690 6.196832 0.061760 69 92 48
-0.010339 1.966104 -1.528877 55 50 46
1.377065 4.677228 -0.198690 166 135 91
0.338675 3.198985 -1.344322 73 68 63
-1.463235 6.568291 0.179502 114 140 95
-17.108610 3.167769 0.631354 129 126 118
-2.204660 6.284373 0.224351 107 131 83
-20.570320 3.842511 0.830266 129 126 118
-0.119720 0.743818 -0.362757 174 164 154
-14.655672 6.705896 1.621478 0 0 0
-1.993680 6.357555 0.239063 132 159 108
-16.330591 7.456329 3.563668 71 74 76
4.320246 8.142975 -0.054481 87 102 107
-0.825192 1.778444 -0.190897 78 81 67
-0.281498 1.058624 -1.508862 43 37 26
-2.305999 6.300430 0.331600 94 117 74
0.084597 1.605245 -1.291312 93 89 80
-0.502898 1.321445 -1.146259 59 50 45
-0.074448 0.759272 -0.293179 162 153 138
-1.523055 0.200309 -1.685839 42 43 25
0.046323 0.769444 -0.297754 66 62 56
-1.816358 1.619600 -1.372256 110 102 65
-2.286453 6.909256 0.518324 27 35 14
-2.027472 5.065844 -0.601590 87 75 36
-0.046064 0.752163 -0.265665 100 90 79
0.101629 0.603195 -0.843737 140 131 116
-2.263659 6.772156 0.573282 85 110 66
-2.720378 5.765834 0.660282 148 154 152
0.810937 6.854452 -0.320145 41 63 28
0.049816 0.773185 -0.253144 52 48 42
-0.192801 0.853079 -0.223908 130 125 121
-0.831351 1.824581 -0.021867 133 132 127
-0.232244 0.490108 -1.834875 39 21 12
-3.341829 6.317331 0.729590 68 69 53
0.633997 2.395955 -1.512217 70 65 59
-0.602979 2.017533 0.060323 39 42 26
-2.229417 4.421753 -0.664783 45 55 16
-0.859251 1.961559 0.077444 120 117 112
16.101372 12.772652 -0.172207 130 124 110
0.142458 0.658193 -0.161718 161 140 122
0.176600 0.625048 -0.124365 163 148 131
-4.059864 4.587398 1.738478 50 62 48
-0.396645 6.426747 1.418632 58 117 186
0.313190 0.502017 0.065126 54 55 67
-0.060439 6.504538 1.509113 74 139 195
-18.368160 4.933308 5.655548 164 140 146
-1.709415 5.788389 1.620740 186 135 118
-0.077483 1.079130 -1.543938 29 24 20
-2.100981 5.940932 1.730322 168 171 175
-0.900401 1.762319 -1.484136 112 127 67
1.037501 0.466038 -1.981099 182 175 169
0.402377 0.378291 0.283707 111 111 113
-2.696652 4.597133 -0.628644 161 170 150
-0.347902 6.348263 2.329779 71 85 150
-0.271355 6.400799 2.357148 201 205 108
-3.450221 6.016449 0.654005 28 21 13
-0.262719 6.134913 2.240377 201 205 108
-17.091377 3.192637 0.349815 63 78 35
-0.753184 6.261739 2.357819 76 107 149
0.171454 0.777379 -0.413246 134 101 69
-0.745062 6.142518 2.308240 76 107 149
0.194509 0.739192 -0.362433 131 105 75
3.512334 7.496151 2.766873 220 220 226
-1.209199 5.923258 2.684693 222 245 255
-3.604395 4.392192 1.652250 114 120 120
-0.460138 0.241178 -1.877759 225 206 192
-0.296603 0.297056 -1.892728 103 89 78
-0.793002 0.321732 -1.835483 106 100 74
-1.375057 0.367280 -1.769082 65 48 27
0.462240 2.249375 -1.534812 97 92 86
-0.518953 6.712193 0.422136 59 55 38
-0.419287 0.344598 -1.867470 194 189 163
0.152300 1.712118 -1.614546 54 52 37
0.064827 0.358615 -1.922652 234 225 216
0.076457 1.536667 -1.563238 79 79 67
-0.300986 0.368623 -1.877296 213 201 179
-0.037471 2.361448 -1.450346 55 50 44
-0.767026 0.393393 -1.828543 116 102 96
-0.874318 0.785448 -1.712812 81 54 42
-0.370792 0.377767 -1.866847 72 55 41
0.217356 3.079738 -1.291940 67 62 58
-1.288536 0.422327 -1.770006 110 95 68
-1.681469 0.334749 -1.705970 28 30 11
0.645577 0.462995 -2.002199 106 96 87
0.034056 1.533374 -1.158257 89 85 74
0.652724 0.481830 -2.013155 106 96 87
-1.903032 1.073326 -1.463073 38 35 12
0.727998 0.474798 -2.006176 110 103 95
0.325602 0.476215 -1.947892 103 98 87
0.543203 0.430592 -1.937231 130 121 112
-1.145829 4.032109 -0.938673 42 37 18
-0.365498 0.466248 -1.839455 214 200 184
-1.347870 3.761286 -1.003500 96 91 71
0.105626 0.514212 -1.904937 211 205 197
-2.014130 3.966596 -0.847790 90 99 46
1.057389 0.526026 -2.014689 223 214 207
-0.321098 0.982684 -0.736927 59 52 41
-0.255189 0.546847 -1.834660 234 206 192
-2.407477 6.126350 0.080877 77 87 50
-0.257601 0.528953 -1.828441 234 206 192
-0.875118 0.583409 -1.772751 110 104 78
-1.980483 6.194053 0.413753 72 84 49
-1.618499 0.608450 -1.692971 80 65 34
-3.106590 5.735860 0.362530 34 32 13
-0.581035 1.265411 -1.477397 116 110 96
1.106155 0.533857 -2.004841 239 230 221
0.359339 0.544043 -1.904340 83 73 61
-3.650973 5.412942 0.482620 22 29 13
1.087800 0.577951 -2.011917 104 95 87
0.186111 0.937136 -0.425217 59 49 39
1.088439 0.581523 -2.014115 104 95 87
-0.548118 0.602600 -1.792854 110 77 49
-20.436829 4.083694 1.242526 52 55 57
-0.862885 0.604658 -1.761813 233 227 204
0.617749 0.646694 -1.930681 181 172 163
0.186645 0.934998 -0.284917 43 41 28
2.783514 2.964724 -1.102141 176 173 168
-1.337133 0.669759 -1.692763 101 87 52
-1.151890 2.458598 0.197063 138 141 130
-0.451104 1.004507 -0.376977 29 28 29
0.905870 0.664255 -1.954154 123 114 107
0.640703 0.748485 -1.889863 213 204 195
0.246802 6.962276 -0.047508 70 73 36
0.643188 0.760504 -1.893425 213 204 195
6.453290 4.773953 -1.077384 42 36 31
-0.086728 0.785682 -1.800141 124 116 103
-3.934425 4.613104 1.555219 17 22 26
-0.013701 0.812390 -1.809331 185 178 170
-21.206209 6.880091 5.941757 32 47 54
-1.213945 2.348375 0.141775 72 72 62
-0.706671 0.919383 -1.729855 141 98 79
-1.175259 2.362791 0.249420 0 0 0
-0.817493 0.928317 -1.701715 238 216 196
-4.193248 4.566079 3.016493 59 66 58
-1.171926 0.946738 -1.661059 102 88 52
-1.211965 0.952802 -1.652026 179 173 149
-3.448328 4.738362 3.395114 34 63 108
-0.721195 0.991944 -1.699267 232 222 210
-3.461194 4.896313 3.637754 151 173 197
-1.054380 4.409739 0.546029 204 205 198
-0.052459 0.948615 -1.759674 104 94 92
-3.139646 5.088240 3.716649 186 169 187
0.105112 0.681597 0.037356 68 66 69
-1.536132 0.988896 -1.598315 101 94 52
-1.513221 4.892364 3.109714 59 72 106
0.056105 0.571494 0.164315 65 67 79
-0.042382 0.983834 -1.746461 209 204 201
-0.325030 0.117556 -1.933891 130 106 100
-0.042903 0.974428 -1.741899 209 204 201
-0.401370 0.109899 -1.946939 154 150 138
-0.086385 1.052281 -1.715709 114 103 81
-0.396722 0.133868 -1.941185 55 51 39
0.302723 0.384880 0.171501 0 0 0
-0.554360 1.208230 -1.634901 180 175 148
0.076945 0.945221 -1.783694 72 72 64
-0.890592 1.274190 -1.620823 128 113 80
0.237649 1.410938 -1.667615 161 156 150
-1.536344 1.301569 -1.541529 187 184 148
-0.519792 1.221342 -1.581154 68 63 40
-0.641273 0.188213 -1.912427 44 31 22
-0.705695 1.435294 -1.586329 174 173 138
0.128530 1.786422 -1.590974 54 51 44
0.694980 1.653736 -1.670177 89 80 71
0.085159 1.416845 -1.595163 11 10 6
1.520667 1.735591 -1.777659 79 72 66
-0.432755 1.094992 -1.395081 167 161 149
0.447214 2.643067 -1.441498 38 33 29
-1.918753 1.822505 -1.385428 182 167 140
0.086517 2.157071 -1.523987 35 30 26
-2.009813 2.026136 -1.313289 80 83 35
-0.576562 4.012911 -1.001076 35 31 20
-1.859683 2.789289 -1.209004 194 187 158
-1.996266 0.864169 -1.549105 22 20 0
1.877046 2.819634 -1.535194 36 31 25
1.807255 2.773459 -1.504292 36 32 27
-0.361834 1.061055 -0.824662 19 14 10
1.240825 2.912133 -1.451657 114 105 98
0.221511 1.200498 -0.674306 131 125 114
2.019593 2.638407 -1.447196 124 118 111
-1.669955 6.153518 0.209899 64 86 41
1.905341 2.695280 -1.400969 51 46 42
-2.585302 6.013687 0.215566 19 29 10
-2.097913 3.263490 -1.073524 128 122 95
-2.746930 5.984189 0.499613 56 77 37
0.381555 1.102805 -1.026012 38 28 18
0.150426 0.999621 -0.511768 29 19 11
1.950360 2.517880 -1.234497 62 52 50
-3.641807 6.007611 0.666374 29 27 12
1.709104 3.592380 -0.980635 112 101 90
0.248204 1.124829 -0.305316 118 116 104
-2.215997 5.243256 -0.528718 148 156 103
-15.591167 7.390225 2.008636 38 41 35
-0.885757 6.168324 -0.459200 173 171 120
1.058300 4.343956 -0.576278 109 102 93
-1.619951 5.818281 -0.358959 21 34 0
-3.912961 4.684669 1.300487 130 134 137
-1.823155 5.835608 -0.340637 111 133 84
-19.850719 8.618608 4.009610 143 123 122
1.816693 3.069162 -0.619695 197 190 182
-0.052002 0.797908 -0.516614 72 61 41
-4.188675 4.220196 1.436654 32 33 27
1.896111 2.568874 -1.219383 182 177 173
-1.581101 5.579209 2.730906 71 61 69
0.326422 0.426823 0.117029 166 156 147
0.271917 1.480529 -1.676908 52 43 34
4.900257 5.484754 -0.985274 51 46 42
0.250530 0.483656 0.213822 153 149 145
-1.369676 0.347145 -1.760493 41 36 17
0.481774 0.353907 0.200601 168 167 158
0.333001 1.072262 -1.069569 80 72 61
0.159812 0.521003 -1.885303 127 118 109
0.081063 0.535170 -1.870967 93 89 81
0.913040 0.662757 -1.923172 209 202 194
-1.957327 6.444242 0.394914 75 99 49
-0.139341 1.053997 -1.466740 126 118 106
-1.831393 6.611329 0.801311 16 25 7
0.789128 6.972022 1.226397 32 36 48
0.375303 0.500843 0.355722 157 161 164
-0.347183 0.975580 -0.391661 116 109 91
0.088666 0.729280 -0.277178 141 123 101
0.505930 0.359853 0.090260 92 84 81
-1.262872 1.385379 -1.552890 76 68 32
0.215031 0.493998 0.253809 87 90 95
-17.326296 7.526122 5.221437 109 111 107
4.994663 9.645197 1.070106 31 41 42
0.227928 0.480267 0.289309 149 150 155
-16.973820 6.406784 4.956667 20 27 43
-0.209756 0.368235 -1.877181 203 207 170
0.761622 0.560204 -1.986719 95 88 80
-0.803088 1.447190 -1.582078 198 195 162
0.533841 0.509864 -1.935561 203 200 191
-0.367220 0.904649 -1.723702 124 102 90
-19.224913 4.741746 5.574625 142 143 142
1.381167 1.183478 -1.889892 100 96 92
-0.338362 1.090836 -1.640598 166 155 134
1.981258 2.555942 -1.434400 142 130 116
-3.775410 4.578120 3.204553 119 128 134
0.585611 0.313830 0.090990 139 141 145
-3.548960 4.690648 3.397896 47 71 113
0.291627 0.452466 0.185645 183 176 170
-5.211302 3.284990 3.415633 42 45 53
0.291271 0.453331 0.185722 183 176 170
-3.628270 4.760994 3.578017 49 71 110
-0.282050 1.102561 -1.549160 108 102 90
14.062070 13.855701 3.855633 92 91 106
0.048633 0.761342 -0.232255 153 137 124
-26.704035 8.907059 3.654871 27 29 26
-0.707879 1.447227 -1.586967 167 166 129
0.239966 0.611897 -0.112626 171 141 112
-1.548849 1.359138 -1.526579 128 130 86
-17.985327 7.262331 11.198050 0 0 0
-0.122570 1.059579 -1.409466 139 132 116
1.364820 2.542562 -1.627882 102 97 91
-0.080265 0.801132 -1.780029 210 204 190
0.384899 2.192194 -1.523703 109 105 96
-0.169569 0.857466 -1.766577 203 198 185
-27.380024 10.590610 6.098046 77 77 65
-1.618854 2.122812 -1.354733 129 130 85
-19.088375 3.605326 5.524442 92 110 110
-0.110598 1.112425 -1.687102 194 188 174
-24.410770 7.215215 5.247388 239 239 241
0.438796 2.686787 -1.409608 89 84 78
1.684400 2.871984 -1.362900 180 175 169
-26.375475 8.198705 5.858036 235 235 237
-1.826253 2.378565 -1.280504 118 112 76
0.061984 0.736331 -0.248389 67 52 38
-5.753983 3.943090 1.982788 33 29 30
-2.148610 2.447224 -1.274427 187 182 160
0.229948 0.580545 -0.062766 167 149 127
-2.926711 5.190143 1.937663 186 184 189
-0.342656 1.170070 -1.134867 73 68 54
-2.170301 2.949568 -1.120848 150 146 119
-14.345870 6.288294 9.286934 0 0 0
0.631626 0.291829 0.149017 88 89 93
-2.762341 3.233303 -1.011697 163 153 116
0.264818 0.474378 0.264384 81 80 81
-0.683684 1.376805 -1.601380 72 68 37
0.223902 -0.005523 -1.494523 88 52 28
0.048660 0.761352 -0.232703 153 137 124
1.522138 1.770144 -1.779032 63 58 53
0.223902 -0.005523 -1.494523 88 52 28
-0.309093 1.086902 -0.187440 132 131 126
-1.480791 1.140690 -1.582286 108 98 62
0.095751 6.492445 1.827133 44 79 130
0.021975 1.485891 -0.980946 133 124 107
0.047966 0.773376 -0.256722 58 48 38
-22.899353 5.889209 1.958051 19 23 23
-0.402158 0.985041 -1.701203 136 126 100
-5.056313 3.481560 1.473982 56 48 53
-2.775369 6.451932 0.831279 33 41 28
-0.044709 0.976809 -1.741659 207 207 199
-14.106030 6.904476 2.045445 75 84 102
-0.650020 1.533469 -0.162398 174 167 159
-2.285100 6.596193 0.749262 7 18 2
0.310638 0.800258 -1.804703 108 103 97
-1.719294 6.262855 2.144377 100 92 88
-0.075424 0.760007 -0.294160 166 158 138
-8.485855 5.424579 0.818608 30 36 19
-0.720751 0.575613 -1.790691 187 177 167
-0.225743 0.821507 -1.780716 185 182 171
1.737183 2.895525 -1.140236 164 159 156
-1.773851 6.983603 0.730081 6 14 3
0.666301 0.736614 -1.884219 105 98 88
0.286019 0.719161 -0.179239 66 42 24
1.452934 2.697994 -1.531318 102 94 89
0.120541 1.151261 -0.611984 19 15 9
0.413033 0.681131 -1.890845 108 103 97
-2.348183 5.738725 0.787832 203 209 199
-0.178016 1.138734 -1.209418 141 132 117
-1.354582 6.388865 0.112309 67 83 51
0.965262 0.760489 -1.940689 109 104 98
0.160436 0.664604 -0.201687 154 133 112
0.415873 0.621747 -1.900229 206 208 207
-2.069309 2.722124 -1.264251 172 164 145
-0.429041 1.087801 -1.425732 96 91 84
0.149304 0.515996 -0.925150 88 81 66
0.140422 0.523647 -1.859975 222 213 204
-4.682883 4.138346 0.649940 25 31 29
-0.405470 1.077178 -1.447646 148 144 133
-2.606223 4.576681 -0.585934 75 86 49
0.905253 0.663938 -1.955418 94 89 84
-2.916395 4.941937 3.645889 168 130 144
0.754624 0.582981 -1.965989 211 204 195
-2.201080 4.726208 -0.615377 31 46 10
-0.121730 0.405826 -1.885199 212 202 193
-1.794086 5.320897 -0.528880 33 38 8
-0.251823 0.336142 -1.903585 98 79 62
-2.946921 1.643909 -1.236408 39 26 2
-0.503730 1.033885 -0.560898 117 111 97
0.393596 0.376562 0.190348 179 176 168
1.841301 2.687624 -1.333053 180 175 171
1.939294 2.596699 -1.492172 58 53 50
-2.469532 5.104267 2.475993 176 183 191
1.944331 2.606086 -1.493493 58 53 50
-0.209779 1.140228 -1.169659 130 118 99
-0.345888 1.078537 -1.178196 174 167 148
-16.158573 7.265261 2.358346 152 162 163
0.363682 0.420723 0.276568 124 121 117
-0.040031 1.044631 -1.351646 178 173 159
-16.979439 6.790345 1.647530 72 81 66
-0.124161 1.087160 -1.698388 175 166 153
-1.931434 5.556488 -0.162513 89 108 53
-0.738461 1.092111 -1.688031 90 95 41
-0.356442 0.964791 -1.692900 205 206 191
-1.618039 3.902701 -0.975930 111 105 81
-0.155218 0.374869 -1.895448 116 105 88
0.501087 0.356761 0.236128 91 93 103
0.042607 0.775969 -0.313845 92 85 82
-0.403612 1.054507 -0.371986 42 48 47
-1.794565 0.489011 -1.646636 18 7 2
1.917810 2.666619 -1.112592 73 69 68
-23.470282 8.441172 2.812209 38 45 50
1.861903 2.666350 -1.462101 164 160 151
-2.725855 5.074403 3.376541 77 92 125
-0.460329 1.045115 -0.442513 115 112 97
-2.004061 5.845754 1.704948 0 0 0
-1.428982 1.990260 -1.423872 122 121 67
-20.506096 8.699233 4.852513 185 178 170
-0.379155 1.065102 -1.421498 161 155 141
-0.904921 0.559029 -1.782325 130 121 88
7.120371 7.259618 -0.436050 149 145 133
1.927114 2.610812 -1.336373 67 62 59
-0.360461 1.084661 -0.231288 124 122 116
-0.340076 1.064595 -1.357724 147 143 131
-11.575848 6.337319 1.615948 153 165 165
-0.153212 1.104475 -1.558612 98 90 79
-22.725887 8.142529 3.134431 60 75 68
-1.060457 0.841271 -1.680437 91 105 50
0.264923 0.725978 -0.235172 152 128 106
-1.174808 5.949670 2.654127 84 109 144
-1.716447 4.471522 -0.755948 63 84 21
-0.753099 6.116455 2.678273 220 239 252
-2.346302 5.735029 0.787073 198 204 193
-0.729320 6.109804 2.615689 87 105 139
-0.269939 1.095477 -1.211126 76 68 61
-0.790183 6.095666 2.581608 200 234 254
0.441994 2.517384 -1.462849 84 77 73
-0.790183 6.095666 2.581608 200 234 254
-0.021641 1.191795 -1.243472 86 83 78
3.298050 7.605095 2.616124 226 233 239
-1.443476 4.101076 -0.907507 154 155 123
-0.367191 6.257436 2.276361 88 98 120
-2.997763 5.977232 0.548582 38 36 24
-0.140610 6.350997 2.299200 185 203 145
-1.759977 5.716510 -0.231427 57 75 46
-0.137060 6.375318 2.310112 185 203 145
-3.244378 4.960116 1.724699 171 145 135
-1.742772 5.963766 2.151582 207 163 154
0.044362 1.499803 -1.437501 52 47 47
-1.980269 5.665695 1.999794 101 96 100
0.419601 0.385915 0.237308 176 172 170
0.505651 6.617684 1.845135 160 202 227
-22.421957 6.960180 8.548645 223 220 226
0.734567 0.326605 0.078775 85 75 65
-22.203699 6.937132 8.222233 236 234 235
-0.631278 6.317176 1.960281 0 0 0
-0.074016 6.485279 1.439995 141 181 223
0.810504 6.802814 1.441561 120 156 174
0.431354 6.654700 1.381978 148 170 198
-1.184031 2.926965 -1.248569 158 157 126
0.315863 0.529060 0.023938 153 140 134
0.315603 0.528913 0.022671 153 140 134
-19.625666 6.214686 6.754361 30 40 55
0.272831 0.498603 -0.041909 99 80 71
-1.512257 2.817147 0.286502 231 232 226
-3.005272 4.839695 3.427236 57 73 117
-0.882323 4.456405 0.491144 226 225 220
-3.604078 5.257391 3.816138 49 73 107
-0.580830 1.537777 -0.094804 134 131 124
-2.328962 5.276934 3.412641 151 158 168
-2.186944 6.715173 0.618826 27 44 8
-2.339637 5.302360 3.432355 151 158 168
-2.249830 7.093414 0.662882 27 44 8
-3.340038 4.845122 3.533293 44 67 101
-1.968285 6.919415 0.622299 89 113 71
-3.341893 4.849463 3.536158 44 67 101
-2.087938 6.718884 0.586999 77 106 60
0.770309 0.279227 0.067089 95 95 95
-2.098719 6.558507 0.460974 100 122 76
4.121999 8.044807 0.017235 21 44 13
-17.796350 5.588675 6.327603 212 213 207
-1.895626 6.302711 0.176109 33 57 15
-3.670261 5.377120 2.968302 0 0 0
-1.907707 6.365150 0.178051 33 57 15
0.641155 5.297516 0.145891 126 125 120
-1.995482 6.256646 0.017864 102 126 80
-3.504845 4.509251 1.845741 54 68 74
0.028770 0.868452 -0.558458 112 95 74
-0.953553 3.802612 -0.995236 95 87 80
-0.041705 0.806991 -0.616990 68 53 35
0.047992 1.565423 -1.165401 81 77 66
-1.556421 5.775591 -0.485568 65 75 17
-0.247966 1.093337 -1.517035 54 50 39
-1.963553 5.425958 -0.525505 63 65 28
-3.329450 4.465258 1.339995 161 134 125
-2.394702 4.888257 -0.562727 45 63 14
2.135510 3.905182 -0.933299 112 95 77
-0.717687 1.136316 -1.388634 102 94 60
-2.265897 4.957940 -0.602761 80 90 28
-18.210999 6.174952 5.394669 22 40 44
1.932577 4.017204 -0.956760 139 127 115
-5.198957 3.862733 2.654030 43 38 34
1.308016 3.732915 -1.097211 148 141 133
0.102765 1.032667 -0.592420 110 91 68
-1.123710 1.082594 -1.653755 110 103 62
-1.946851 4.050018 -0.874741 64 79 14
0.177435 0.954939 -0.212209 128 128 120
-1.150429 4.061863 -0.953192 98 93 62
-2.360354 0.907563 -1.456641 64 59 28
-0.456055 1.073980 -0.833642 112 96 80
-2.278960 4.966761 -0.503502 27 43 2
1.350365 3.437388 -1.123324 129 127 122
-2.003913 0.758661 -1.536986 163 129 94
-2.170857 3.454160 -1.006085 99 104 48
0.064626 1.768083 -1.562782 87 87 75
-2.215281 3.387567 -1.036453 178 174 139
-0.680741 0.360549 -1.841370 98 97 69
8.112823 6.697295 -0.601456 50 48 49
-2.296561 3.152725 -1.058850 199 193 179
-4.041299 5.511720 1.248074 62 63 45
2.009495 2.798679 -1.525863 52 48 43
7.640631 6.071366 -0.981988 183 181 176
-0.459331 1.178458 -1.131889 135 126 109
0.107309 1.029295 -0.593462 111 91 68
-0.178359 1.140064 -1.208944 131 124 106
1.275199 2.514708 -1.548953 107 98 91
-0.376900 1.089671 -1.221208 95 84 66
-0.298373 1.054841 -1.250637 91 83 70
4.525928 3.110277 -1.786091 95 91 88
1.264727 2.077412 -1.664923 101 94 88
-22.849287 9.460422 4.179532 131 125 127
-0.356308 1.105518 -1.537731 110 103 85
-1.230732 1.444590 -1.555466 194 188 161
-0.973222 1.358814 -1.591870 169 153 124
-0.043678 0.908442 -1.752486 137 135 123
-0.194041 1.074035 -1.688383 95 83 71
-1.580166 1.744215 -1.447508 118 109 80
-1.737158 1.109072 -1.558453 96 99 48
-1.559879 1.063911 -1.594489 204 196 164
-0.211862 0.918176 -1.729205 149 116 96
-34.877522 11.318500 6.740756 65 67 56
0.165748 0.945291 -1.791833 111 107 96
-2.735524 5.666471 0.123880 67 73 42
0.782488 0.907062 -1.879885 110 101 84
0.091302 0.973615 -1.766334 200 201 193
-0.380451 0.819456 -1.754515 117 102 78
-2.498575 5.285635 2.134098 196 203 210
0.055145 0.796310 -1.813534 139 119 106
0.252743 0.486362 0.166819 74 62 54
-0.098475 0.627260 -1.769373 175 168 160
-0.594643 0.759164 -1.745088 208 213 173
0.774065 1.953479 -1.622719 106 102 97
-0.696624 0.763933 -1.754824 209 194 175
0.574711 0.281849 0.130771 160 159 151
-1.693362 0.741814 -1.654110 172 160 118
0.091390 6.446765 1.677995 64 112 164
-1.242946 0.702293 -1.696430 168 159 139
-0.362795 6.317581 1.772553 33 90 162
-0.916468 0.715137 -1.740274 141 114 93
-11.204911 6.457116 1.746034 105 108 81
0.895619 0.610453 -1.957520 205 196 187
-0.039110 0.819619 -0.412982 58 50 40
-0.978185 0.624688 -1.760017 120 103 73
-0.048863 0.867827 -0.566261 78 60 45
0.537646 0.513570 -1.938309 213 206 198
-4.026158 5.372452 1.326499 66 62 54
0.760246 0.557504 -1.984999 93 86 78
-0.174512 0.973808 -1.708510 143 138 125
-0.311710 0.494466 -1.841919 202 195 171
-2.567423 5.276917 2.366686 193 199 208
-1.063067 0.515747 -1.768446 125 91 72
-2.990667 4.964715 2.694000 151 124 125
-1.391231 0.755109 0.018417 171 170 166
1.077290 0.452328 -2.024293 207 198 189
-0.720873 6.414535 1.587351 0 0 0
0.060689 0.817881 -0.338569 70 70 70
-0.968912 0.504593 -1.781779 181 173 152
-1.437687 0.605659 -1.683077 70 64 30
-1.699956 3.391583 -1.078901 160 157 139
-0.338221 0.408262 -1.856161 112 94 73
-8.180457 5.201780 1.338975 69 84 79
-0.021386 0.056373 -2.033418 100 90 87
0.074268 0.382557 -1.911982 110 101 92
0.319887 0.398460 0.168448 94 90 84
-0.497882 1.495683 -1.040532 62 61 57
-0.777984 0.416154 -1.819130 237 229 225
-21.965399 3.511377 4.911133 156 141 140
-0.209224 0.361764 -1.875957 198 212 167
-20.382851 3.427463 4.635555 127 115 119
-0.736035 0.400198 -1.829150 214 206 188
-0.839152 0.384690 -1.821835 202 199 187
-4.225873 4.310660 2.204947 56 54 59
-0.838825 0.398371 -1.825495 202 199 187
-1.631858 4.509108 1.826518 130 136 148
-0.983174 0.371270 -1.812993 126 96 86
-1.631858 4.509108 1.826518 130 136 148
-0.985908 0.380098 -1.809351 126 96 86
0.146907 0.308329 -1.934549 228 217 206
0.524540 0.345841 -2.006874 150 141 136
-23.964725 5.865788 3.176450 28 35 48
-0.167572 0.310672 -1.907076 176 175 157
-21.808125 4.099358 1.612736 31 38 48
-1.330437 0.320501 -1.804567 222 215 196
-18.033485 8.307322 2.381064 163 172 169
-1.333457 0.328950 -1.806941 222 215 196
-13.923975 6.885354 1.875539 82 90 104
-0.836435 6.053552 2.624225 64 110 171
-13.658608 5.717655 1.114073 69 94 39
-0.832988 6.042311 2.617715 64 110 171
-0.574789 6.197648 2.630753 79 112 177
-3.730242 5.257934 0.793634 53 66 51
-0.574710 6.195946 2.628237 79 112 177
-3.494254 6.361685 0.650079 30 27 12
-1.174965 5.932479 2.532420 72 110 159
-3.227447 5.895514 0.479663 74 82 58
