ply
format ascii 1.0
element vertex 1196
property float x
property float y
property float z
property uint8 red
property uint8 green
property uint8 blue
end_header
2.368806 -0.574069 -1.196223 185 181 172
1.669348 -0.934577 -2.039081 131 132 126
1.727564 -0.878298 -1.693366 186 190 189
1.908272 -0.630323 -1.330024 220 230 232
2.292373 -0.101822 -1.358972 135 133 131
1.399418 -0.792943 -2.809622 171 163 144
1.438221 0.037043 -4.376454 225 203 189
2.521472 0.518364 -1.111069 204 200 191
2.448364 0.586150 -1.310441 180 175 169
2.310967 0.477116 -1.473026 198 191 185
2.523513 0.739924 -1.224892 214 209 203
1.931229 0.117592 -1.397348 140 145 148
1.437102 0.151766 -3.006342 91 81 45
1.363156 0.814361 -4.601340 240 215 193
1.964435 0.325138 -1.340785 135 145 146
3.506325 3.107204 -1.368748 108 97 91
1.339328 1.333074 -4.679416 35 22 12
1.219857 1.170784 -4.826887 76 61 48
1.321610 1.519267 -4.738194 107 91 66
1.035395 1.119433 -4.999091 183 170 157
1.205031 1.777927 -4.973452 114 93 66
0.595083 1.634256 -5.710238 106 85 47
3.542511 5.284498 -1.903606 129 113 100
0.853514 -0.864552 -1.158430 128 134 130
0.473560 1.952596 -5.683518 247 252 123
3.044305 5.195814 -2.858973 107 93 84
3.603866 6.647779 -2.223825 250 242 222
3.122354 6.376508 -2.950550 202 214 141
3.157739 6.765660 -2.851866 201 201 151
3.305647 7.223928 -2.480443 239 247 200
3.075258 7.250955 -3.128130 207 206 155
1.049210 -0.116086 -0.814188 175 179 180
3.142473 7.602146 -2.350250 182 209 92
1.082767 0.253724 -0.748254 209 210 206
0.899040 -0.097427 -0.761999 197 207 208
0.955419 15.197690 -4.749747 242 241 224
-4.306814 29.948481 -14.689766 89 95 73
-5.456299 31.954575 -15.124216 15 22 4
-8.495382 27.852961 -19.298595 82 96 34
2.612682 -0.872939 -0.587025 157 155 143
2.413816 -1.022670 -0.890610 189 189 177
2.019897 -1.376442 -1.556889 165 160 145
1.949446 -1.446950 -1.651471 155 151 140
2.737089 -0.729837 -0.461358 205 205 193
2.723182 -0.699506 -0.466893 195 193 180
2.693229 -0.764601 -0.494445 182 178 166
2.325563 -1.071252 -1.039600 160 158 145
1.648761 -1.644603 -2.153676 143 137 121
2.659574 -0.711057 -0.591539 163 161 148
2.635581 -0.735732 -0.605892 208 206 194
2.275139 -1.077274 -1.133830 178 178 164
1.735440 -1.509591 -2.037085 186 181 163
1.726851 -1.527956 -2.041588 149 144 125
2.645048 -0.705374 -0.621204 158 158 141
2.747302 -0.542804 -0.517784 202 202 190
2.712325 -0.575278 -0.535458 206 203 191
2.691406 -0.601749 -0.544142 228 225 210
2.168240 -1.029487 -1.373538 186 185 176
1.784413 -1.358106 -1.922771 127 101 68
1.711392 -1.428889 -2.088863 184 179 160
1.687499 -1.461551 -2.110653 186 181 162
1.759224 -1.331912 -1.992231 196 190 170
2.734450 -0.409548 -0.532323 186 187 173
1.746182 -1.297641 -2.029907 197 193 177
1.609380 -1.417729 -2.298836 192 188 171
1.547741 -1.464493 -2.396400 164 159 140
1.864333 -1.114404 -1.836673 165 159 145
2.732340 -0.301129 -0.592499 223 223 213
2.422227 -0.604725 -1.043021 132 129 124
2.019183 -0.900966 -1.648066 133 130 125
1.885350 -1.066817 -1.811744 193 189 177
2.710243 -0.190788 -0.685187 185 183 177
2.374297 -0.499582 -1.229487 190 182 171
1.877815 -0.922395 -1.844268 152 137 125
1.811162 -0.888491 -1.693398 188 189 184
1.791389 -0.889602 -1.772903 143 145 142
1.616399 -0.969223 -2.378070 160 148 132
1.829649 -0.781763 -1.427882 217 230 239
1.620685 -0.925660 -1.915915 147 147 145
1.622449 -0.928385 -2.003257 141 142 136
1.615435 -0.718305 -1.829922 135 135 132
1.634014 -0.688942 -1.652566 101 111 112
1.460348 -0.745106 -2.139998 226 226 224
1.565196 -0.646857 -1.618972 141 151 153
3.644521 2.394706 -1.090315 127 121 121
1.391875 0.711389 -4.517685 70 41 25
3.690363 2.835823 -0.955482 71 60 54
3.706813 2.866192 -0.966220 71 60 54
1.382110 0.292081 -3.094918 206 197 168
1.685959 0.290436 -2.006067 164 162 150
1.304996 -0.371439 -1.725460 191 189 177
3.753385 3.383374 -0.946134 251 244 234
3.657439 3.456237 -1.203051 162 152 144
3.537519 3.397011 -1.421243 111 100 94
2.344219 1.443792 -1.632207 103 89 80
0.799359 0.897998 -5.412888 71 54 42
1.642800 0.702989 -2.104731 130 127 112
1.078964 1.379615 -5.053130 200 177 159
3.658379 3.722996 -1.145920 206 196 186
1.286565 -0.226914 -1.489622 68 70 65
3.531658 4.011407 -1.505464 247 240 230
1.260546 2.253758 -5.091225 240 213 195
1.204339 2.304850 -5.181002 108 75 48
1.215009 2.066762 -5.069300 240 203 177
0.982437 1.973512 -5.348682 255 252 207
2.437577 2.398473 -1.845740 228 219 204
3.356675 5.508409 -2.407162 245 222 210
0.652572 -1.101082 -1.248360 136 132 107
3.766644 6.504248 -1.948287 253 234 214
3.561554 6.499439 -2.326175 185 167 147
3.577069 6.996952 -2.643125 126 105 86
1.151257 -0.061707 -0.832105 139 141 140
0.723108 -0.893242 -1.058870 132 133 128
0.010574 2.513109 -6.219229 233 253 95
3.582195 7.452557 -2.182266 65 52 43
3.290564 7.018168 -2.814203 100 99 61
3.707621 7.601513 -2.028840 195 168 152
3.276226 7.618858 -2.150691 191 222 155
3.276226 7.618858 -2.150691 191 222 155
0.936133 0.001635 -0.726923 173 177 178
0.347263 -0.784967 -1.103123 154 162 165
0.323227 -0.627804 -1.051630 161 163 160
0.656957 0.689846 -0.725678 181 194 203
0.527722 0.131374 -0.775072 201 210 217
-2.885243 11.667422 -11.198557 215 226 192
1.265291 15.430751 -4.897185 55 57 35
1.024511 15.181396 -4.856243 31 32 16
0.859811 15.120258 -4.677221 22 19 1
0.584394 15.719962 -5.339507 28 31 5
0.226705 16.151186 -5.450682 205 214 151
-3.190763 11.612167 -10.182620 148 163 118
-4.155319 30.356897 -15.586453 7 10 0
-1.962340 18.542934 -8.043139 196 207 176
-4.778895 31.336611 -15.298116 4 12 0
-8.808174 25.584301 -19.592108 222 237 177
2.338466 -1.132510 -1.009677 186 184 172
2.316638 -1.149610 -1.060104 187 185 173
2.620133 -0.840124 -0.608695 148 146 134
2.304580 -1.126227 -1.086354 182 180 168
1.808113 -1.534745 -1.850284 164 163 145
2.241093 -1.153790 -1.189862 145 144 131
2.127162 -1.247161 -1.376379 212 207 188
2.228719 -1.070471 -1.228379 183 181 169
2.067460 -1.205620 -1.500680 207 208 192
1.763127 -1.473703 -2.002921 182 174 155
2.794969 -0.565815 -0.463932 220 222 209
2.713234 -0.635129 -0.541023 216 212 201
2.640535 -0.689993 -0.616249 216 217 199
2.605397 -0.707079 -0.675168 158 159 145
2.118950 -1.111637 -1.420144 179 180 166
1.758790 -1.449440 -1.995180 180 173 157
1.665898 -1.509308 -2.161003 143 137 121
2.437011 -0.796796 -0.917668 167 167 155
2.150112 -1.049426 -1.397201 177 177 167
1.915528 -1.253541 -1.730632 195 193 181
1.691900 -1.432261 -2.117983 176 171 151
3.783193 0.593651 -0.834882 54 39 32
3.783545 0.622211 -0.829576 176 161 154
2.522828 -0.707866 -0.798259 197 197 185
2.097656 -1.041102 -1.498863 139 138 134
1.883428 -1.248760 -1.796846 193 193 183
1.890324 -1.187122 -1.817216 151 148 136
1.880633 -1.167895 -1.810410 206 202 187
2.254400 -0.816440 -1.268274 132 125 116
1.806027 -1.108355 -1.948588 161 156 138
2.736886 -0.218145 -0.615233 189 189 177
2.061098 -0.837623 -1.429607 217 217 207
1.810704 -1.052643 -1.932956 176 173 161
1.742148 -1.125143 -2.074663 131 132 121
1.724487 -1.145163 -2.080566 174 172 161
1.716310 -1.142789 -2.124621 175 169 155
3.777383 1.024061 -0.851186 74 58 50
2.754575 -0.167950 -0.622771 223 223 211
1.922363 -0.888326 -1.702330 146 146 138
1.912250 -0.895038 -1.756596 112 110 94
1.793198 -0.974303 -1.985393 90 73 53
3.766752 1.073937 -0.877366 211 191 182
3.759047 1.065586 -0.874100 211 191 182
2.064341 -0.796373 -1.193646 196 198 192
1.811566 -0.913320 -1.842763 140 141 138
1.802834 -0.944757 -1.971182 139 126 114
1.726759 -0.960314 -2.098211 102 94 81
1.521719 -1.144890 -2.474405 169 160 143
1.510093 -1.122937 -2.515810 197 188 171
2.800839 0.032213 -0.525894 208 208 198
1.938846 -0.809889 -1.337215 165 169 170
1.920649 -0.831800 -1.427477 223 225 222
1.785252 -0.895508 -1.850447 138 143 139
1.406776 -1.109846 -2.752194 205 200 181
2.844541 0.167484 -0.554136 214 214 204
1.940342 -0.792038 -1.258586 204 213 218
1.853993 -0.840488 -1.476041 219 223 226
2.586222 -0.032114 -0.913463 207 202 198
1.915148 -0.683924 -1.322199 210 223 232
1.696695 -0.872596 -1.755679 194 200 200
2.720683 0.151006 -0.700086 207 207 193
2.602342 0.083191 -0.872454 217 217 207
2.056306 -0.524378 -1.175980 137 141 141
1.545258 -0.931500 -1.947097 147 147 147
1.560199 -0.899040 -1.882800 220 221 223
1.342511 -0.870028 -2.922104 174 163 145
2.756099 0.452015 -0.740947 175 176 168
2.521248 0.212168 -1.071373 183 180 171
1.811905 -0.573014 -1.514932 221 228 237
1.794813 -0.602484 -1.540249 214 225 227
3.710849 1.867307 -0.948154 196 184 172
1.902690 -0.442307 -1.384698 230 234 243
2.287076 0.152902 -1.421137 163 161 152
1.668633 -0.592686 -1.586053 113 124 126
1.641173 -0.656622 -1.622990 208 218 221
1.542829 -0.707890 -1.759034 135 137 134
3.678354 2.085495 -0.877059 161 154 148
1.523603 -0.646063 -1.667414 206 212 212
1.856882 -0.142619 -1.533485 185 191 186
1.416501 0.365785 -4.488839 211 193 179
1.350001 0.263126 -4.584913 65 52 36
1.245589 0.233796 -4.729206 52 37 25
1.863729 -0.112573 -1.500477 113 119 117
3.701795 2.534333 -0.948239 73 57 47
3.631305 2.446600 -1.097637 57 47 43
2.365564 0.763354 -1.483885 206 198 187
1.677327 -0.173376 -1.827715 145 147 146
1.175629 0.375489 -4.867277 165 152 135
1.467683 0.201336 -2.939678 150 143 124
1.454266 0.144176 -2.926390 143 130 111
1.284172 0.695547 -4.641470 187 165 149
1.463543 0.345253 -2.961638 126 113 94
1.135349 0.675621 -4.911834 223 194 170
3.653491 2.943667 -1.129951 83 76 68
3.582478 2.980263 -1.166030 169 170 159
1.067686 0.877188 -5.024417 71 55 40
0.961543 0.654450 -5.094649 74 60 47
3.634014 3.305358 -1.212381 225 200 193
3.580017 3.223915 -1.301201 116 103 94
1.662779 0.094190 -1.447106 142 150 155
1.331545 1.179105 -4.663154 54 33 16
0.863840 0.812915 -5.273582 30 16 6
0.834602 0.831713 -5.333405 185 168 158
0.937755 0.997731 -5.198111 64 56 40
2.588254 1.964400 -1.385496 176 172 160
1.682172 0.687838 -2.084472 158 156 141
1.102912 1.866786 -5.181409 255 238 212
0.937822 1.630431 -5.345222 91 47 18
0.794323 1.380032 -5.400493 235 219 186
3.614448 4.190678 -1.313199 217 205 199
3.614448 4.190678 -1.313199 217 205 199
3.344424 3.933159 -1.864116 235 225 215
1.252873 2.188334 -5.135056 109 71 50
1.490188 0.119258 -1.096295 161 162 157
0.913273 1.996698 -5.401487 250 220 184
0.842086 1.897321 -5.486599 229 196 165
3.588661 4.620408 -1.431769 224 212 199
3.512596 4.575981 -1.590747 181 164 157
3.512596 4.575981 -1.590747 181 164 157
3.447994 4.423211 -1.737378 113 109 86
2.424318 2.771259 -1.965849 213 212 200
1.188260 -0.056199 -1.483751 47 43 31
1.064195 -0.302874 -1.559734 70 68 54
0.718603 -1.112177 -1.277620 106 111 109
3.564789 5.127899 -1.697543 211 195 182
3.451752 5.561498 -2.274567 187 161 138
1.237195 -0.137415 -1.009796 123 123 121
0.923114 -0.734193 -1.038535 102 107 103
0.809917 -0.864519 -1.125648 142 145 138
3.647135 5.845009 -1.884409 195 176 161
3.557996 6.259347 -2.222261 101 78 58
3.261418 5.593285 -2.534043 76 63 47
1.355793 0.120590 -0.896923 137 139 136
1.269717 -0.023286 -0.912653 123 125 124
0.949810 -0.660315 -0.990890 115 116 110
3.767195 6.483616 -1.870642 102 81 65
3.404343 6.681805 -2.702553 102 79 61
3.271695 6.632292 -2.920544 253 242 216
3.685629 6.946180 -2.201588 247 229 215
3.688890 7.237063 -2.181506 90 73 59
1.058029 -0.224983 -0.937694 111 111 109
0.993128 -0.429476 -0.921322 118 119 114
3.739971 7.594241 -2.079438 52 35 15
0.727446 -0.854826 -0.980122 140 146 129
0.677027 -0.892427 -0.995527 125 117 94
0.693767 -0.895986 -1.017083 91 97 84
3.193243 7.432699 -3.024466 239 234 198
2.985892 7.505893 -3.417223 87 100 43
0.478250 -1.150226 -1.143319 118 128 120
3.389182 7.670472 -2.039851 120 135 101
3.201414 7.595528 -2.430605 78 101 19
3.108314 7.742378 -2.990084 95 111 33
3.282286 7.642574 -2.061790 114 136 87
0.650859 -0.795814 -0.886662 151 157 146
0.605964 -0.825951 -0.926281 139 137 113
0.547154 -0.875895 -1.034528 103 113 122
0.478065 -0.896617 -1.084476 117 127 140
0.553223 -0.818422 -0.911846 130 133 111
0.582229 -0.712172 -0.829882 131 138 144
0.491694 -0.813389 -0.905312 126 136 135
0.492341 -0.813386 -0.904696 126 136 135
1.008636 0.721195 -0.725728 205 209 208
0.890562 0.385377 -0.717079 165 171 171
0.499947 -0.625935 -0.818857 194 203 208
0.459259 -0.184094 -0.845413 157 167 176
-2.374499 12.982471 -11.191339 41 63 21
-2.358050 12.737795 -11.122407 102 120 80
1.026758 15.486563 -4.639703 26 27 4
0.955281 15.795357 -4.794604 219 219 194
0.955281 15.795357 -4.794604 219 219 194
0.936490 15.497698 -4.594916 230 229 199
0.188377 16.370222 -5.732681 215 216 168
-3.250578 29.765226 -15.219090 6 13 0
-3.804287 27.485840 -15.379698 141 150 110
-3.668380 11.825720 -10.758994 114 122 73
-3.758796 30.726042 -15.385030 0 3 0
-3.941121 30.660488 -15.281517 53 55 33
-4.215810 12.907081 -11.488945 95 99 43
-4.976487 31.452276 -15.325930 71 80 61
-5.430387 32.195755 -15.517934 100 107 90
1.803844 0.253954 -1.439703 190 195 198
0.868501 -0.739882 -0.963302 131 132 131
2.600445 0.229326 -0.917254 183 181 172
1.836983 -0.895065 -1.788622 126 126 118
2.269262 -0.681431 -1.264804 101 99 91
1.924232 -0.487876 -1.337268 202 211 214
2.655573 0.016624 -0.753676 120 117 114
2.376122 -0.763981 -1.057469 205 203 196
1.819488 -0.065663 -1.403204 208 220 223
2.595309 0.186007 -0.923406 179 176 169
2.313094 0.672066 -1.509373 89 82 73
2.241463 -0.073847 -1.354297 88 90 87
1.676222 -1.364546 -2.166762 118 112 97
2.457140 -0.016272 -1.120111 119 116 108
2.136789 -0.779091 -1.177450 111 117 119
2.506998 -0.047367 -1.043560 218 213 203
2.537966 -0.030241 -0.998317 213 210 202
2.229007 -0.779027 -1.245336 95 95 84
2.018567 -1.356569 -1.566629 160 154 144
2.062671 -0.119094 -1.251316 116 124 126
2.132504 -1.194112 -1.383993 213 208 193
1.865118 0.241705 -1.306150 212 215 217
0.767896 -0.706772 -0.867269 170 174 174
0.462517 -1.093620 -1.103401 133 140 143
1.545038 -1.298098 -2.426720 176 170 154
2.178676 -0.433646 -1.254445 151 159 156
1.254248 0.494673 -0.808966 180 183 178
1.171401 1.242904 -0.838250 146 151 154
1.732271 -0.132588 -1.500790 190 195 197
2.186001 -0.782634 -1.207280 110 115 114
1.804694 -0.867260 -1.605356 154 155 149
2.054788 -0.221060 -1.226231 109 115 115
0.948607 0.949297 -0.710145 160 168 170
1.742865 -0.893894 -1.722291 163 165 162
2.217031 -0.612501 -1.240625 80 83 76
2.598966 -0.299058 -0.825983 195 192 186
2.338472 -0.315336 -1.300478 177 170 161
2.171029 -0.686674 -1.210480 184 189 186
2.426527 -0.556972 -1.133060 165 161 152
1.558974 -0.545822 -1.635203 126 138 143
1.568730 -1.188054 -2.360511 191 184 166
1.162129 -0.174202 -1.047718 147 148 141
0.759653 -0.952922 -1.144521 133 139 139
-1.061089 1.062042 -7.080513 41 32 8
2.561271 -0.613451 -0.764556 185 181 162
1.674985 -1.363989 -2.168397 122 116 100
2.064560 -1.344193 -1.470194 195 189 175
1.879379 -1.169076 -1.807110 139 136 123
0.896744 -0.048949 -0.731325 207 211 215
2.295448 -0.125118 -1.368232 186 181 174
1.959131 -0.678485 -1.233141 184 193 200
2.278163 0.046770 -1.403368 143 139 130
2.282452 -1.020397 -1.144155 159 158 146
1.262440 0.149041 -0.801612 214 215 213
0.829937 -0.055324 -0.729700 211 216 219
0.708471 -0.942429 -1.108102 122 127 132
2.797590 0.219566 -0.626079 219 219 209
2.083322 -0.966582 -1.454241 142 137 133
2.470406 1.312909 -1.475911 208 205 193
2.064840 -0.288916 -1.208017 0 0 0
0.941840 1.150036 -5.166928 193 171 143
2.306800 -0.864668 -1.156536 184 182 170
2.829780 0.265560 -0.580015 228 228 216
2.157140 1.930372 -1.676126 157 163 161
1.211040 -0.002801 -0.833775 170 172 171
2.777574 1.106254 -0.863001 166 164 152
2.895487 6.471827 -3.621328 94 76 64
2.444663 5.650634 -4.075387 241 211 172
2.418540 -0.927132 -0.892358 167 163 151
2.799561 -0.018115 -0.533368 176 176 166
2.784822 -0.072148 -0.564777 213 213 202
1.980326 -0.759156 -1.184847 151 156 160
1.914438 -0.812569 -1.336374 196 202 202
0.951973 1.543568 -5.328742 119 80 49
1.189808 -0.180297 -1.046417 161 162 149
1.139148 -0.209820 -1.020797 159 158 153
0.936411 0.000637 -0.726510 182 187 191
2.745985 -0.429972 -0.526772 159 159 147
2.541748 -0.784127 -0.718504 161 161 149
2.468736 -0.904403 -0.830653 198 194 182
2.758233 -0.268373 -0.547690 216 216 204
2.496576 -0.747701 -0.819569 158 160 147
1.942314 -1.700051 -1.585224 166 161 144
2.278847 -1.051936 -1.142400 169 165 153
1.984103 -1.254175 -1.638165 154 151 142
1.893282 -1.401135 -1.752806 200 196 179
1.811061 -1.541306 -1.850495 170 173 153
2.019170 -0.815024 -1.309037 193 193 185
1.952633 -0.748792 -1.243430 199 208 213
2.550419 0.628848 -1.147337 148 144 135
2.745880 1.163002 -0.929695 214 211 199
1.812082 -0.755304 -1.480972 179 189 198
1.726368 -0.909378 -1.823077 189 191 186
2.320152 0.575674 -1.509384 91 75 68
1.830289 0.170882 -1.322532 182 191 196
1.240735 0.991173 -4.699933 58 40 25
0.828027 1.447456 -5.450414 70 49 13
0.259381 0.131600 -5.860408 64 34 6
1.267140 -0.026774 -0.910906 134 136 135
1.143477 0.359738 -0.771016 186 190 191
0.848312 -0.225304 -0.798006 142 152 153
-0.353231 16.676327 -6.917252 208 216 169
2.690726 -0.517719 -0.575714 179 175 150
2.598550 -0.692053 -0.655823 230 225 206
2.497806 -0.837665 -0.788126 189 187 175
2.406835 -1.039782 -0.895232 168 164 152
2.515370 -0.694773 -0.815073 190 190 180
2.362978 -0.976308 -1.003530 199 195 183
2.723326 -0.279440 -0.595018 178 179 165
2.425922 -0.832723 -0.909334 193 190 175
2.155391 -1.257989 -1.326519 210 205 186
2.742381 -0.147788 -0.594251 180 180 167
2.673955 -0.080734 -0.764344 178 174 163
2.527180 -0.381336 -0.941388 185 181 172
2.245515 -0.907619 -1.252361 197 195 183
2.152227 -1.052108 -1.414590 183 180 171
2.124871 -1.136924 -1.410527 167 164 155
2.290056 -0.653939 -1.248246 89 88 83
2.834651 0.654831 -0.693343 209 210 194
2.191450 -0.549644 -1.238122 160 165 159
2.059548 -0.839282 -1.427536 208 208 198
1.814366 -1.328834 -1.900206 172 159 142
1.768813 -1.376466 -1.958674 177 166 146
2.047071 -0.796202 -1.158986 152 153 147
2.047071 -0.796202 -1.158986 152 153 147
2.019279 -0.798077 -1.247976 206 207 202
1.995970 -0.873999 -1.629991 134 134 122
2.274811 -0.204931 -1.366835 156 155 150
2.055166 -0.627676 -1.161971 148 153 149
1.961616 -0.876246 -1.644559 171 168 153
1.701766 -1.237234 -2.120294 188 179 164
2.226106 -0.110018 -1.343848 157 159 154
1.981843 -0.635566 -1.199909 191 196 200
1.961588 -0.626214 -1.246259 197 202 206
1.893804 -0.822277 -1.388188 144 147 146
1.818468 -0.937270 -1.929553 98 81 65
1.790357 -0.882598 -1.681131 160 161 156
1.990112 -0.290308 -1.281413 181 190 199
1.935777 -0.394764 -1.341575 229 238 243
1.897003 -0.416103 -1.407781 213 218 222
1.894012 0.146993 -1.367273 176 181 184
1.690024 0.006156 -1.464533 165 169 173
1.460649 -0.416034 -1.676701 150 158 160
2.451921 2.326649 -1.727758 232 225 209
2.326141 2.811517 -2.125612 183 184 170
1.008411 1.461824 -5.182901 221 183 156
0.906546 1.726784 -5.423718 249 197 160
1.272383 -0.050747 -0.926989 136 138 137
1.120342 -0.189933 -0.943647 161 161 159
1.026848 -0.244810 -0.928409 102 103 98
0.869753 -0.522703 -0.851387 111 117 115
0.760935 -0.687932 -0.834848 153 159 159
0.621650 -0.612737 -0.791086 118 123 127
0.618578 -0.607131 -0.802553 118 123 127
2.375592 -0.406382 -1.183022 158 154 146
2.442764 0.389102 -1.269735 168 165 157
2.338482 -0.935870 -1.067703 200 197 188
2.711605 -0.116602 -0.676345 173 173 163
1.725493 -1.411073 -2.064280 209 202 186
1.096807 0.000151 -4.794711 224 207 196
2.555185 0.675392 -1.140268 193 187 176
1.525471 -1.333230 -2.474678 209 203 185
2.114492 -1.139296 -1.430176 189 189 183
2.358622 -0.493520 -1.245411 179 167 155
2.549203 -0.623741 -0.791384 218 214 201
2.001290 -0.253701 -1.270260 196 206 214
2.132280 -0.829299 -1.386265 126 125 111
0.692788 -0.902722 -1.047437 132 135 134
0.610429 -1.055220 -1.144967 101 107 105
2.308201 -0.176476 -1.339831 187 183 179
2.078291 1.335002 -1.566161 199 200 196
0.475595 -0.796154 -0.897995 81 87 87
2.730150 0.267562 -0.723462 221 219 205
1.645424 -1.476401 -2.234973 174 169 153
1.210423 -0.192694 -1.512825 121 121 113
2.390936 -0.343357 -1.199630 100 98 95
1.662352 -1.244546 -2.220408 124 118 102
1.377670 0.123147 -0.909048 178 180 177
0.810386 -0.419591 -0.776303 176 181 186
2.421313 -0.332972 -1.179779 187 185 180
1.957096 -1.168001 -1.700696 153 149 138
1.925654 -1.555274 -1.676564 155 150 137
0.908662 0.616799 -5.227382 187 168 154
0.572855 -1.016461 -1.095123 157 163 166
1.815278 -1.617164 -1.756068 188 182 167
1.042178 -0.005905 -0.755981 171 177 179
2.032798 -1.147865 -1.581262 185 184 172
2.425891 -0.126301 -1.146458 119 118 113
1.720252 0.030621 -1.434790 175 180 182
1.306499 0.159010 -0.829178 178 180 179
0.745294 0.045729 -0.703444 217 223 223
0.876252 -0.130007 -0.760672 122 126 131
0.811109 0.325495 -0.780465 216 222 222
1.506310 -0.731508 -2.026811 218 217 212
1.090562 -0.182517 -1.442914 66 63 48
2.762602 3.587008 -1.937098 124 107 100
0.634310 -0.455691 -0.762943 126 130 131
0.752897 0.495858 -0.671686 159 169 178
2.838271 0.837144 -0.763315 234 232 220
1.315005 -0.085901 -4.671597 48 35 26
1.574282 -0.942680 -2.345813 159 148 128
1.568558 -0.954500 -2.322620 159 148 128
1.973134 1.500631 -1.496568 211 215 225
1.724555 -0.753069 -1.653243 207 216 223
0.622405 0.863582 -5.678871 229 198 167
0.955346 -0.587915 -0.967984 79 82 75
2.327683 -1.148123 -1.040191 165 161 149
1.670713 -1.530385 -2.125614 153 150 133
2.299246 -0.375819 -1.348543 114 115 110
1.512745 -1.212204 -2.504896 171 162 145
2.381193 2.132452 -1.777289 215 206 191
1.234954 -0.057973 -1.503731 26 23 14
0.746117 -0.955639 -1.194249 117 127 130
2.740871 -0.654697 -0.469502 161 162 148
1.873829 -0.936699 -1.860372 111 90 76
1.435478 -0.900721 -2.137032 221 221 211
1.110754 1.294918 -4.975250 178 164 152
1.013109 1.680418 -5.298163 255 251 221
3.367855 5.885664 -2.525253 158 139 123
3.081163 6.495813 -3.018085 191 197 114
0.601060 -1.094116 -1.208338 155 145 120
2.425679 -0.641477 -1.028764 196 195 190
1.518784 -0.950712 -2.141769 174 174 166
1.516513 -0.953666 -2.131678 174 174 166
1.480164 -0.820303 -2.666867 165 157 136
1.155089 0.103554 -4.722456 84 61 48
0.634132 1.487689 -5.621139 232 210 150
3.414117 7.186448 -2.561395 93 77 51
3.555372 7.683679 -2.256289 46 50 9
0.564766 -1.052685 -1.107538 76 81 84
0.489450 -0.587512 -0.820557 161 169 172
-1.694561 18.737925 -7.872865 80 97 42
2.183097 -1.285076 -1.285166 171 165 151
2.403165 -1.035679 -0.919577 161 159 146
2.410926 -0.911255 -0.923718 194 193 183
1.732823 -1.619649 -1.987659 183 177 161
2.670686 -0.444454 -0.637282 215 210 190
2.376750 -0.712040 -1.057509 189 188 183
1.842309 -1.053208 -1.885475 157 151 139
1.988034 -0.843628 -1.458483 176 175 170
2.462234 -0.173971 -1.071228 162 161 156
2.808199 0.381350 -0.648093 195 195 183
2.572854 0.816908 -1.133034 223 219 210
3.539209 3.037888 -1.360955 128 118 109
1.289729 0.851187 -4.676064 91 69 48
1.296695 1.008909 -4.664679 55 42 26
3.355224 3.767950 -1.843442 118 107 105
3.364235 3.840756 -1.795809 231 218 202
0.791978 1.785445 -5.525287 225 191 156
2.909666 5.499108 -3.296135 251 236 188
2.904850 6.511489 -3.641995 87 71 58
2.920252 6.598887 -3.687144 87 71 58
3.597664 7.540076 -2.299400 249 237 214
3.288818 7.161272 -2.457379 249 254 201
3.146400 7.506367 -3.115481 101 99 53
3.395633 7.503779 -2.247862 184 212 97
3.304875 7.418942 -2.359452 27 40 3
3.260679 7.612498 -2.187919 196 223 146
3.164990 7.670341 -2.372941 179 212 78
0.631466 -0.459037 -0.700116 46 47 39
2.157294 -1.312275 -1.309747 162 156 141
2.157294 -1.312275 -1.309747 162 156 141
2.428057 -0.988049 -0.914874 170 168 155
2.406865 -0.976234 -0.912862 198 196 183
1.832223 -1.544754 -1.803060 217 193 170
1.961066 -1.343933 -1.637341 195 189 177
1.771932 -1.512784 -1.951681 103 98 78
2.760521 -0.410616 -0.516501 210 212 199
2.788522 -0.358390 -0.507943 215 216 203
2.476933 -0.600363 -0.884905 189 186 177
2.774860 0.373794 -0.672090 177 177 165
1.952672 -0.642843 -1.257412 225 231 237
1.794547 -0.789197 -1.518320 194 204 210
1.720042 -0.822743 -1.630007 207 215 217
1.379345 -0.969625 -2.813931 156 148 129
3.664676 1.895442 -1.067983 161 145 137
1.648542 -0.623160 -1.594541 105 113 118
1.577272 -0.502003 -1.630568 143 148 151
1.309670 0.160376 -4.657628 38 21 11
1.479793 -0.552407 -1.751481 209 211 208
1.325756 0.340479 -4.573684 127 112 97
1.315247 0.718403 -4.624545 244 217 198
3.475210 3.128966 -1.460826 116 103 95
2.173179 0.875398 -1.491570 165 174 169
1.346644 0.891324 -4.629715 73 49 31
1.280012 0.949242 -4.707644 199 173 158
2.645655 1.794386 -1.238592 123 119 108
2.653792 1.817007 -1.250479 123 119 108
1.870545 0.422423 -1.311591 169 175 175
1.193766 1.519309 -4.933364 98 77 56
1.192903 1.498603 -4.902119 98 77 56
1.625927 0.200792 -1.178008 174 174 172
1.159537 1.809200 -5.101140 131 101 75
0.352487 1.230524 -5.929652 63 34 7
0.790928 2.065544 -5.564957 250 216 179
3.319173 6.137034 -2.659688 246 229 207
3.089419 6.792240 -3.167720 235 226 167
3.006678 7.110429 -3.574568 76 72 35
3.004130 7.097024 -3.566131 76 72 35
3.382658 7.232675 -2.396086 46 60 8
3.136790 7.495403 -2.681323 79 96 27
2.915517 7.697274 -3.413056 91 109 10
2.549711 7.237857 -3.719657 75 103 34
0.409829 -0.811141 -0.978883 137 142 146
-4.913573 27.197340 -16.068293 27 36 0
-4.819975 30.005966 -15.505532 36 41 9
-6.185602 30.141846 -18.339430 36 46 4
-6.372669 28.427948 -17.258905 214 228 130
2.365276 -1.128654 -0.961171 159 156 144
2.459851 -0.951584 -0.827189 198 196 184
2.494571 -0.855353 -0.796084 161 161 149
2.328577 -1.068417 -1.042156 163 161 148
2.307516 -1.055873 -1.098442 201 198 183
2.594613 -0.697730 -0.675887 230 229 211
1.937864 -1.385303 -1.693557 165 159 147
1.933733 -1.436241 -1.679436 158 154 142
1.851073 -1.503237 -1.786157 187 179 159
1.839089 -1.493058 -1.796292 119 100 75
2.114959 -1.139998 -1.427341 195 193 181
1.962420 -1.321250 -1.641107 159 155 144
2.172771 -1.029853 -1.404063 190 187 178
2.800899 -0.300980 -0.506874 191 191 181
2.728039 -0.398988 -0.546285 211 213 200
2.649653 -0.411029 -0.706567 219 210 195
1.799672 -1.303208 -1.923392 119 98 77
1.730149 -1.376906 -2.042433 117 110 92
1.676427 -1.459649 -2.150330 165 157 142
2.683262 -0.301991 -0.673108 171 171 161
2.475133 -0.570958 -0.927564 147 144 135
1.775257 -1.297920 -1.962516 144 117 96
1.711293 -1.372145 -2.092715 135 126 109
1.679690 -1.366551 -2.164931 121 112 97
2.745737 -0.178492 -0.615259 215 215 203
2.171870 -0.823824 -1.363582 198 191 175
2.118124 -0.803461 -1.224761 148 145 140
2.815454 -0.001757 -0.545749 185 186 172
2.086963 -0.820826 -1.347278 130 131 120
2.638764 -0.046858 -0.821150 183 180 171
2.470753 -0.170553 -1.111647 176 164 162
1.631802 -1.072455 -2.301229 201 189 173
3.676318 1.455811 -0.980054 62 49 43
1.859141 -0.856216 -1.536242 208 208 206
1.975031 -0.682000 -1.207337 230 235 239
1.971828 -0.686649 -1.200707 230 235 239
1.802349 -0.828251 -1.497722 161 167 174
1.718518 -0.893987 -1.781027 209 210 205
1.594779 -0.922061 -2.433650 177 166 148
1.375008 -1.095540 -2.814116 198 191 173
3.617069 1.699577 -1.064846 82 61 47
2.559257 0.230947 -1.009026 181 177 166
2.319326 0.189925 -1.411074 184 181 174
2.306045 0.116530 -1.378592 126 121 117
1.969514 -0.385785 -1.296386 226 235 244
1.649170 -0.716151 -1.734960 124 125 119
1.377839 -0.229931 -4.475775 48 30 20
1.477095 -0.691538 -2.086096 207 208 203
1.416832 -0.256423 -2.926614 153 142 122
1.726190 -0.157445 -1.567922 161 167 165
1.714239 -0.107740 -1.719769 192 190 180
1.327769 0.553263 -4.641030 78 60 48
2.706936 1.387467 -1.052731 217 218 204
1.416147 0.120263 -3.009323 168 157 124
3.418364 3.158964 -1.601124 112 99 91
2.359768 1.256385 -1.583201 104 98 86
2.359768 1.256385 -1.583201 104 98 86
1.272113 0.789383 -4.699607 87 62 42
1.245197 0.889641 -4.769578 180 164 144
1.245524 0.894570 -4.775496 180 164 144
2.363013 1.394202 -1.624738 220 202 194
2.212894 1.166791 -1.580772 158 167 162
1.648245 0.391547 -2.056791 101 92 77
1.648068 0.392395 -2.057418 101 92 77
1.349580 0.363457 -3.221394 98 84 57
3.509231 3.538912 -1.437722 127 119 116
3.496107 3.531775 -1.459563 127 119 116
1.316430 1.234916 -4.681725 176 160 147
1.197628 1.071220 -4.803185 165 153 139
1.166993 1.108037 -4.830761 51 41 29
3.389816 3.709740 -1.546450 162 154 151
1.223161 1.400059 -4.858008 230 211 196
3.366646 4.075446 -1.872353 113 90 84
2.555679 2.077017 -1.454445 220 221 205
0.922120 1.246236 -5.203165 83 61 37
0.922923 1.281464 -5.260571 83 61 37
3.444768 4.206699 -1.760775 149 133 120
3.346847 4.243951 -1.921154 218 203 184
3.337578 4.243894 -1.969653 131 110 93
3.337578 4.243894 -1.969653 131 110 93
1.014322 1.924006 -5.345663 116 94 53
1.014322 1.924006 -5.345663 116 94 53
0.994800 1.806006 -5.313798 248 212 176
0.947008 1.740034 -5.353889 185 141 104
3.383198 4.496165 -1.892442 196 192 165
3.302148 4.558497 -2.143625 181 161 144
3.320560 4.626953 -2.175231 181 161 144
0.664570 1.406964 -5.522519 251 242 183
0.332600 1.074690 -5.829268 113 92 44
0.345300 1.004700 -5.816405 246 222 189
3.446696 4.836369 -1.911680 133 119 106
3.516300 5.309318 -2.045148 132 110 98
0.645687 1.819992 -5.590301 231 241 174
0.621651 1.677069 -5.670440 249 236 189
0.596080 1.624141 -5.693865 106 79 34
3.460012 5.593423 -2.227138 252 231 211
3.393750 5.253117 -2.250293 159 134 114
3.289846 5.504757 -2.509901 241 227 214
3.210174 5.309920 -2.626696 88 79 64
3.452966 6.077395 -2.375491 227 209 195
3.121917 5.500659 -2.870788 216 204 186
3.034887 5.620718 -2.999856 121 109 89
2.979070 5.433874 -3.112155 253 246 236
3.429543 6.358575 -2.486510 251 239 215
3.429543 6.358575 -2.486510 251 239 215
3.130536 6.042583 -2.920354 212 207 165
3.061028 6.092257 -3.079844 90 86 46
3.491196 6.676646 -2.448424 233 208 188
0.798022 -0.872060 -1.131789 103 106 99
0.710122 -1.012582 -1.236445 125 120 114
0.652415 -1.101370 -1.247744 138 132 108
3.690584 7.383407 -2.183140 243 221 207
3.268230 7.265618 -2.902705 175 173 139
3.149178 6.705297 -2.821515 222 215 169
3.119544 6.713771 -2.999945 210 202 153
3.119544 6.713771 -2.999945 210 202 153
3.118044 7.089177 -3.201731 95 80 41
0.636767 -1.098249 -1.215703 97 92 72
3.378618 7.409039 -2.349231 208 223 158
2.932213 7.195023 -3.392877 215 222 158
2.932213 7.195023 -3.392877 215 222 158
2.881886 7.324178 -3.441387 87 101 22
2.640438 6.577798 -3.503000 220 241 163
0.680937 -0.931241 -1.105377 148 155 161
3.273351 7.528403 -2.325221 176 198 116
3.250902 7.382202 -2.423645 203 223 159
2.899076 7.416667 -3.377126 211 226 135
0.740524 -0.840851 -0.967344 210 208 167
3.276405 7.530048 -2.247732 39 62 0
0.539252 -1.119504 -1.138846 109 113 113
1.093260 0.321729 -0.752928 175 177 172
0.595137 -0.810940 -0.908826 128 133 126
0.503707 -0.864692 -1.011631 40 46 44
0.493514 -0.848380 -0.986840 66 70 73
0.502285 -0.854894 -0.995456 109 114 115
1.174770 1.276017 -0.812824 195 200 200
0.420128 -0.851153 -1.073897 141 150 159
0.646872 -0.239506 -0.776110 129 136 141
0.509063 -0.535500 -0.771778 148 153 153
0.491203 -0.527558 -0.780085 236 239 238
0.441909 0.307165 -0.872392 217 226 225
-1.742337 18.320745 -8.165328 151 167 141
-1.756610 17.858007 -7.847229 21 36 7
-4.629159 27.614567 -14.573440 130 140 104
2.253642 -1.196498 -1.144614 201 198 186
2.096509 -1.272027 -1.450575 175 169 153
2.310788 -0.995346 -1.098298 196 194 181
2.100019 -1.245661 -1.436761 176 175 157
2.521391 -0.713355 -0.771229 134 135 123
2.333807 -0.951624 -1.024722 181 178 165
1.890104 -1.392473 -1.767101 204 200 188
1.811407 -1.465295 -1.856376 143 111 86
1.790905 -1.473862 -1.915149 172 169 154
1.760693 -1.500765 -1.975585 180 177 158
1.764071 -1.466575 -1.977507 125 120 101
2.157957 -0.988571 -1.421619 137 134 129
1.932270 -1.229115 -1.719553 196 194 179
1.931948 -1.231091 -1.714352 196 194 179
1.759487 -1.426423 -1.993840 174 167 148
1.916550 -1.202995 -1.745706 188 190 177
1.836903 -1.315155 -1.869840 174 170 159
1.792389 -1.322488 -1.924020 234 206 182
1.700193 -1.418500 -2.113201 138 129 114
2.834946 -0.172183 -0.505277 158 158 148
2.733658 -0.282270 -0.567070 217 217 207
2.702814 -0.305902 -0.646386 211 213 200
2.577440 -0.463112 -0.812706 192 190 177
2.500329 -0.518899 -0.942292 186 183 174
2.333433 -0.682535 -1.197040 157 154 145
2.221691 -0.803858 -1.270343 208 201 186
1.854543 -1.174176 -1.869965 231 225 205
2.172023 -0.809412 -1.276918 169 167 152
2.155266 -0.822374 -1.337769 107 106 91
2.001554 -1.004594 -1.655090 173 169 166
2.784011 -0.101268 -0.546506 191 191 181
2.744187 -0.120439 -0.598441 214 214 202
2.649108 -0.229128 -0.741090 200 198 186
2.610786 -0.263694 -0.818155 189 186 177
2.377440 -0.527717 -1.208938 150 149 139
2.879538 0.062900 -0.530229 112 114 101
2.485587 -0.306754 -1.039587 164 161 151
1.532802 -1.355622 -2.455242 185 176 159
2.732689 -0.023407 -0.678527 185 182 173
1.893546 -0.898310 -1.733954 170 170 158
1.832853 -0.981899 -1.936186 154 123 110
1.816036 -1.002614 -1.939757 162 142 131
1.792320 -1.016888 -1.997753 112 90 79
1.937626 -0.820627 -1.350237 208 210 207
1.896914 -0.868069 -1.606185 188 185 179
1.699383 -0.981339 -2.190152 130 124 112
1.967978 -0.736296 -1.199612 203 214 218
1.940225 -0.791139 -1.258894 210 218 220
1.919841 -0.808652 -1.329697 193 201 203
1.883023 -0.848317 -1.527044 174 176 172
1.846085 -0.871226 -1.581208 197 198 193
1.814804 -0.894484 -1.767669 166 167 161
2.324364 -0.212113 -1.329742 128 124 115
1.930006 -0.738251 -1.273304 166 181 184
1.773820 -0.885905 -1.691956 201 202 194
1.758298 -0.883996 -1.708506 89 88 83
1.684951 -0.919761 -1.890654 183 185 182
3.644614 1.567461 -1.025980 112 85 71
3.660245 1.666893 -1.066120 140 117 99
1.945984 -0.608711 -1.275629 206 211 217
2.698199 0.353733 -0.796206 189 189 179
2.020248 -0.514517 -1.179560 144 149 153
1.536155 -0.942289 -2.062566 183 184 178
2.633482 0.376709 -0.911153 183 183 175
2.083438 -0.307608 -1.223294 133 139 139
1.821600 -0.593725 -1.502459 201 210 219
1.742413 -0.678038 -1.630303 180 190 192
1.685246 -0.742807 -1.693258 207 210 205
1.651590 -0.757491 -1.771042 150 151 146
1.469108 -0.933038 -2.069556 151 155 153
1.497784 -0.768171 -2.667634 170 163 144
1.365373 -0.935962 -2.842005 188 181 162
1.357365 -0.872594 -2.890480 198 191 171
2.001667 -0.296271 -1.259086 220 231 237
1.626260 -0.729735 -1.724965 208 209 203
1.619182 -0.704000 -1.796124 129 135 121
1.433931 -0.738505 -2.784316 211 203 184
1.358135 -0.840648 -2.877130 167 159 140
3.615346 2.076952 -1.086779 74 57 49
2.751475 0.691715 -0.794827 201 199 187
2.015666 -0.244689 -1.233866 205 212 218
1.937172 -0.310841 -1.350169 210 221 225
1.554999 -0.694942 -1.930548 229 228 223
1.404765 -0.650465 -2.842531 213 205 185
2.669584 0.683078 -0.909513 225 222 210
2.098108 -0.047151 -1.287986 166 172 170
2.041375 -0.118680 -1.245404 212 217 220
2.044914 -0.061429 -1.260596 195 203 205
2.044914 -0.061429 -1.260596 195 203 205
1.509924 -0.648866 -2.063563 230 229 225
2.064472 0.007432 -1.275732 143 153 153
1.406599 -0.389830 -2.909230 207 199 180
1.439978 0.178516 -4.462391 126 109 97
1.389678 0.180828 -4.532870 37 20 10
3.509862 2.502176 -1.299664 184 162 151
2.549858 0.820282 -1.183828 206 202 191
2.336177 0.588039 -1.448718 108 94 81
2.305017 0.622499 -1.506818 86 75 68
1.943409 0.006180 -1.408045 176 179 184
2.730335 1.172068 -0.913731 194 192 180
1.767491 -0.149814 -1.594113 155 159 156
1.746969 -0.154901 -1.543815 108 114 113
1.730285 -0.161377 -1.597332 90 93 88
1.390568 0.382691 -4.509482 57 38 24
1.374037 0.342774 -4.511485 81 63 48
3.528413 2.814788 -1.348961 134 124 112
2.680524 1.207402 -0.996387 205 206 192
2.365423 0.953167 -1.517945 161 153 151
1.692849 -0.138241 -1.622489 239 238 233
1.475883 -0.433142 -1.676216 200 208 210
1.185351 0.420556 -4.840056 188 176 160
3.455006 2.953383 -1.439056 134 119 112
1.650502 0.073762 -1.967811 164 159 155
1.453393 -0.384597 -1.677418 186 196 197
1.270992 0.592671 -4.697592 40 21 7
1.036138 0.503750 -5.054090 82 61 44
1.053424 0.469850 -5.048021 177 158 141
1.354065 0.992957 -4.622913 208 186 173
1.354215 0.994447 -4.625751 208 186 173
1.211132 0.836740 -4.780391 74 54 35
0.943754 0.603586 -5.189676 65 47 33
0.940234 0.593286 -5.334560 63 45 31
3.411945 3.188704 -1.570507 218 205 197
3.361995 3.148525 -1.659161 169 156 148
3.550854 3.610849 -1.396268 145 138 130
1.298571 1.353244 -4.660177 177 160 142
1.143188 1.026030 -4.843767 143 132 114
1.025917 0.953920 -5.052610 75 65 29
3.361833 3.570304 -1.749874 188 177 173
1.657941 0.650706 -2.100143 128 122 108
1.646713 0.606075 -2.119441 145 139 125
1.263531 1.366385 -4.730395 204 186 169
1.265481 1.494268 -4.852376 77 59 36
1.263386 1.448086 -4.786398 77 59 36
1.186217 1.247988 -4.762994 183 167 154
1.135384 1.503732 -5.018281 82 58 34
1.078908 1.175962 -4.939433 195 185 173
1.013392 1.343493 -5.137795 66 43 23
0.961829 1.265164 -5.245431 210 188 161
0.740386 0.861623 -5.493843 215 196 155
3.426220 3.849736 -1.645347 117 106 94
3.308418 3.927392 -1.973829 121 106 102
2.587696 2.331301 -1.550475 197 195 180
1.191136 -0.356560 -1.646987 183 179 167
1.176164 1.837460 -5.107089 92 62 38
1.199796 1.717202 -4.976574 250 235 209
1.126199 1.678899 -5.022034 220 187 157
0.896409 1.240582 -5.262200 70 48 24
0.579709 0.977062 -5.685981 91 68 36
2.528478 2.327334 -1.622854 188 178 166
1.216622 -0.245138 -1.542756 103 104 99
1.104187 1.881929 -5.201089 254 239 209
1.040793 1.863094 -5.320547 255 224 187
0.698264 1.434637 -5.535968 73 51 27
0.395749 0.948576 -5.813754 216 189 146
3.438550 4.670488 -1.872325 247 243 218
3.240918 4.586850 -2.301738 227 209 199
1.154859 2.470301 -5.273569 62 36 8
0.890857 1.949702 -5.461784 250 224 186
0.499924 1.221659 -5.713689 72 48 14
3.381367 4.756564 -1.937616 229 211 198
0.748675 2.030458 -5.599570 97 71 22
0.702810 1.873713 -5.608637 71 69 9
0.717023 1.760171 -5.514673 244 231 183
0.597815 1.738587 -5.650427 236 236 168
0.435212 1.502991 -5.877118 51 31 7
3.192289 5.180684 -2.633598 228 213 207
3.125828 5.107077 -2.714225 196 186 177
1.305057 -0.112618 -1.106660 96 97 83
3.489867 6.000913 -2.300633 96 75 58
3.497302 6.180997 -2.473071 100 82 68
3.262065 5.832426 -2.631323 210 203 187
3.231746 5.787807 -2.731456 101 85 72
2.811864 5.309523 -3.385441 211 181 155
3.481860 6.092617 -2.250849 103 78 47
3.481399 6.126942 -2.322509 200 177 157
3.280207 6.179161 -2.822459 113 95 79
3.132350 6.233716 -2.973781 123 124 66
3.075381 5.724373 -2.905604 62 55 37
2.967815 5.665154 -3.043741 192 179 158
2.916460 5.760570 -3.326388 92 80 60
1.231298 -0.112897 -0.953410 127 127 127
0.880742 -0.807465 -1.062788 100 100 98
0.748413 -0.975412 -1.205638 135 147 143
3.121287 6.407933 -3.021009 191 198 118
3.048154 6.757002 -3.317269 122 102 64
1.260728 -0.004066 -0.886415 132 134 133
0.649808 -1.097999 -1.223921 31 34 17
3.695325 7.524004 -2.163437 72 53 41
3.491652 7.322996 -2.464284 221 222 185
0.976721 -0.476791 -0.928475 87 88 82
0.868047 -0.740320 -0.963586 135 137 136
0.660653 -1.009527 -1.204812 46 40 26
1.513782 1.063576 -1.048538 168 174 172
0.731145 -0.882059 -1.039558 134 134 124
3.403571 7.608184 -2.132349 119 142 79
3.152380 7.595082 -3.013234 86 90 33
3.116510 7.507245 -2.926719 215 223 152
3.154042 7.772982 -3.137552 225 227 177
1.285867 0.349302 -0.825967 176 179 173
0.807812 -0.769195 -0.937574 153 156 155
0.799146 -0.756806 -0.920217 165 169 170
0.777350 -0.801985 -0.957051 84 88 89
0.722509 -0.880688 -1.018756 130 126 124
3.339201 7.586657 -2.156216 66 94 19
1.392935 1.113553 -0.985637 190 204 210
0.943447 -0.300188 -0.846423 158 164 160
0.735174 -0.802205 -0.933946 113 110 80
0.655246 -0.910552 -1.056905 127 131 130
0.645512 -0.906323 -1.041003 87 92 90
0.564229 -1.085460 -1.113032 95 106 110
0.954183 -0.200383 -0.818568 196 204 203
0.736495 -0.766322 -0.894589 161 165 164
0.592084 -0.919924 -1.049922 135 145 148
0.596124 -0.899586 -1.025801 207 212 215
0.595699 -0.899419 -1.026364 207 212 215
0.574817 -0.895073 -1.025532 149 158 163
0.513055 -0.962015 -1.070775 140 151 157
0.679546 -0.595042 -0.810473 170 180 182
1.008537 0.713812 -0.722969 206 210 209
0.633893 -0.554314 -0.775234 121 129 131
0.609313 -0.605558 -0.789284 153 163 165
0.995825 0.829549 -0.699527 196 198 197
0.521353 -0.756881 -0.855684 113 123 129
0.475893 -0.742512 -0.874443 200 209 216
0.343657 -0.662140 -1.038554 232 236 237
0.790496 0.627769 -0.705917 184 193 200
0.611408 0.388901 -0.759281 192 205 214
0.610867 0.360039 -0.761661 166 179 188
0.520497 -0.020266 -0.777093 200 209 214
0.397189 -0.046103 -0.848580 141 149 160
0.588304 1.236271 -0.826585 214 222 233
-8.492158 25.282761 -19.300932 104 116 56
-1.090351 2.658765 -7.266985 44 29 5
0.659984 -0.839515 -0.927055 231 226 151
1.743779 -0.046396 -1.441734 147 156 162
1.704821 -1.335387 -2.094798 151 141 123
2.581546 -0.426662 -0.817037 132 129 120
1.909988 -1.326080 -1.765874 186 186 170
2.422644 0.111970 -1.175385 175 171 159
-1.452745 2.629082 -7.061597 30 19 2
2.636707 0.743877 -1.017396 142 137 128
1.813738 -0.198108 -1.594124 132 134 129
0.754591 0.652423 -5.512074 110 91 74
0.784146 -0.440443 -0.793300 196 200 203
2.409621 0.313056 -1.294566 145 144 139
1.996684 -0.203643 -1.280409 201 210 216
2.450294 0.785897 -1.339677 152 148 137
2.420441 -0.833935 -0.936748 94 94 87
-1.222049 2.492319 -7.129450 18 13 3
-1.668189 2.706129 -6.930023 43 30 11
3.040465 1.927522 -1.715247 216 214 201
1.395927 -0.867361 -2.786461 192 187 168
2.785136 0.173001 -0.614988 212 211 206
1.338908 -0.351206 -1.658678 200 202 199
1.716858 -0.760247 -1.594156 207 218 224
1.598906 -0.928822 -2.057101 169 170 165
1.516778 -0.959584 -2.268209 154 146 127
-1.446888 11.193245 -10.887115 157 176 120
2.062401 0.877062 -1.452938 171 188 198
1.009861 13.730026 -5.671000 226 236 196
-0.015734 20.921928 -12.197201 37 50 20
-1.102477 22.852013 -14.022396 41 50 28
1.869879 -1.584653 -1.754420 151 121 105
2.370773 -0.789384 -1.065758 132 133 128
1.906312 14.121533 -7.054719 210 223 141
1.493960 14.501516 -6.793471 45 67 5
0.478011 15.719256 -7.934218 252 254 180
3.843539 0.749789 -0.748791 61 50 44
3.911947 0.899266 -0.664983 91 78 70
3.903266 0.891251 -0.659071 91 78 70
1.672987 -1.363532 -2.165354 122 116 100
1.964037 -0.913684 -1.692333 122 119 110
-0.024615 2.439651 -6.192498 221 245 60
-1.068489 12.158804 -14.839393 32 50 6
-1.850252 3.269223 -7.156078 15 15 3
0.459168 17.001850 -7.667305 253 253 197
1.915563 -1.470651 -1.711203 159 157 145
3.898476 0.782895 -0.620586 92 83 78
3.851683 0.964538 -0.687837 148 131 123
2.464903 -0.215152 -1.110576 134 126 123
1.523045 -1.413392 -2.447676 193 187 171
1.719102 -0.897133 -1.811072 202 207 203
1.521997 -0.379454 -1.671324 169 178 187
1.100965 -0.094033 -4.910200 71 60 42
0.905003 0.063530 -5.209370 57 42 35
0.921528 0.149873 -5.178632 174 162 146
0.444598 -0.896978 -1.091959 111 125 132
2.809151 6.775979 -3.536846 94 84 51
-0.601820 1.801081 -6.634115 249 253 191
0.686648 21.526196 -12.514492 187 200 132
1.107289 13.769688 -5.657033 218 226 185
3.853725 0.663150 -0.762789 178 172 166
2.693743 -0.453523 -0.603276 188 185 168
1.882434 -1.448000 -1.764260 187 185 173
1.744558 -1.649689 -1.954422 99 100 82
3.811236 0.801135 -0.786379 198 179 164
3.791734 1.499754 -0.824722 240 223 205
3.715000 1.478170 -0.951768 91 79 66
1.622896 -0.896437 -1.829479 171 181 182
2.466818 0.249015 -1.172895 180 176 167
1.628023 -0.862828 -1.795404 227 237 236
1.470742 -0.943302 -2.100797 157 161 160
3.726244 2.203443 -0.812631 65 60 56
1.462294 -0.406175 -2.813556 196 188 169
3.558443 3.268588 -1.328635 111 98 88
1.241094 0.159652 -4.722503 82 64 52
3.499740 3.456109 -1.480562 244 239 235
3.499740 3.456109 -1.480562 244 239 235
3.304515 3.531272 -1.891699 150 145 141
1.188111 0.315885 -4.822729 144 126 112
1.188111 0.315885 -4.822729 144 126 112
0.396740 1.463811 -5.908861 208 190 116
3.056352 6.754438 -3.409837 204 172 147
0.347323 -0.694313 -1.008395 194 200 199
2.761484 7.522844 -3.665617 156 185 84
1.485600 14.828526 -7.527141 69 75 16
-0.505652 10.589211 -10.318741 115 130 89
-0.770936 10.917645 -10.386192 101 126 87
-0.773506 13.681711 -10.623366 56 59 9
0.860412 16.530243 -7.495093 63 89 26
0.370048 15.514167 -7.942020 243 246 179
0.370048 15.514167 -7.942020 243 246 179
2.426140 -0.918027 -0.903044 165 165 155
3.918585 0.679044 -0.637022 245 232 226
3.921965 0.682434 -0.639172 245 232 226
2.506028 -0.724563 -0.791692 188 189 180
3.855751 0.714212 -0.700549 220 208 199
3.856434 0.713343 -0.734669 74 65 60
3.781523 0.736771 -0.839154 178 162 157
2.498651 -0.546256 -0.886699 147 148 142
1.713933 -1.624311 -2.040331 147 144 125
3.970065 1.057561 -0.549303 222 206 193
3.847660 0.905481 -0.703798 88 76 64
3.832607 0.892124 -0.777862 66 60 52
3.781227 0.917195 -0.845443 169 176 174
3.835816 1.232933 -0.762650 97 78 80
3.907270 1.475517 -0.641166 228 219 210
2.656850 0.240349 -0.835095 206 206 198
3.810619 1.803480 -0.808423 205 176 160
2.369540 -0.040310 -1.222907 153 148 144
2.743366 1.094515 -0.900419 187 184 175
1.516048 -0.465739 -4.369125 237 215 188
3.664185 2.833289 -1.079230 113 103 94
3.621164 2.719445 -1.133950 96 83 74
3.648581 2.868863 -1.135113 247 238 231
1.469367 -0.204545 -4.370383 71 53 33
1.487746 -0.122860 -2.809788 198 187 165
1.275570 0.369231 -4.684731 54 42 32
0.688307 -0.958196 -1.156724 82 90 87
0.573896 -1.092605 -1.160407 68 67 56
0.952715 0.558808 -5.192394 59 43 28
1.036621 -0.105462 -0.792435 149 159 158
3.379452 4.855108 -2.150532 112 100 91
3.366801 5.324372 -2.336009 123 107 89
3.568106 6.473774 -2.311665 211 188 172
3.247267 6.103980 -2.806393 92 78 68
0.505264 -0.531359 -0.777593 149 159 161
3.118909 6.702602 -3.296414 249 230 190
3.118909 6.702602 -3.296414 249 230 190
3.118092 6.862998 -3.203261 225 220 168
2.906320 7.091980 -3.347183 209 212 164
0.750092 1.372443 -0.785120 174 183 188
1.240537 13.992378 -5.550585 247 248 216
1.316640 14.614004 -5.951716 96 104 63
-0.594537 13.086199 -9.964970 177 176 131
0.796888 15.869444 -5.176980 18 19 3
1.776154 -1.699547 -1.874023 186 182 170
3.963106 0.779772 -0.552492 95 84 82
3.937208 0.810083 -0.611700 64 54 52
1.804997 -1.614336 -1.829375 170 167 152
3.941493 0.856349 -0.598783 192 184 181
3.943243 0.858132 -0.599960 192 184 181
3.878524 0.808926 -0.686242 254 251 242
3.872712 0.804872 -0.684301 254 251 242
3.710392 0.545083 -0.907783 172 155 145
3.710392 0.545083 -0.907783 172 155 145
3.993245 1.029054 -0.495047 252 241 229
3.979260 1.057093 -0.516388 102 89 73
3.979260 1.057093 -0.516388 102 89 73
2.732935 -0.265067 -0.594042 189 190 184
3.938866 1.034776 -0.599575 230 215 203
3.838253 0.888229 -0.737411 175 166 155
2.239270 -0.792875 -1.246449 200 199 194
1.700314 -1.504798 -2.106866 165 159 145
3.817662 1.126865 -0.803762 180 161 156
2.000076 -1.059765 -1.652696 173 172 167
3.911016 1.351801 -0.618831 90 82 80
3.656025 0.983552 -0.996336 201 193 191
2.526455 -0.178024 -0.972777 201 197 194
2.388096 -0.214221 -1.213153 172 169 164
1.866070 -0.771346 -1.379448 177 192 199
1.650373 -1.076673 -2.251085 203 200 183
1.598120 -1.201701 -2.346604 196 190 174
3.707956 1.600354 -0.938364 84 71 62
1.623270 -1.041947 -2.339755 151 146 127
1.613646 -0.978880 -2.376972 158 153 133
3.638665 1.795544 -1.052719 61 49 37
1.494188 -0.904164 -2.008509 210 214 213
2.610691 0.892946 -1.083993 218 214 203
1.498416 -0.643329 -1.706509 219 221 215
3.664870 2.559422 -1.030175 222 212 191
3.664870 2.559422 -1.030175 222 212 191
1.509452 -0.422051 -4.356605 238 217 194
3.515430 2.424893 -1.279842 75 60 49
3.506740 2.407473 -1.272226 75 60 49
1.474174 0.065736 -2.874591 188 178 151
1.461577 0.086878 -2.919269 107 97 70
1.382908 0.188377 -4.559356 43 29 16
3.635748 3.591914 -1.221696 151 150 140
2.562383 1.942718 -1.415863 206 199 189
1.186397 0.192388 -4.829400 119 103 87
0.735918 -0.991017 -1.219550 117 127 128
1.906832 1.234235 -1.468707 160 171 167
1.151624 0.560569 -4.889229 87 62 42
1.040705 0.356130 -5.084661 145 127 113
3.255536 5.091701 -2.439474 234 225 210
0.435560 -0.972535 -1.096456 117 128 131
0.423983 -1.012812 -1.103265 128 134 132
3.147123 5.549242 -2.773695 116 99 86
3.313378 6.124133 -2.654783 250 233 221
3.143663 5.688577 -2.809131 174 164 154
0.348729 1.158944 -5.890137 211 185 150
3.501677 6.714508 -2.473312 238 223 204
3.533374 6.932253 -2.470243 109 90 73
3.428033 6.566259 -2.558912 117 96 79
3.415872 6.712215 -2.714378 110 89 72
1.190023 0.897632 -0.819650 158 163 159
0.483971 -0.530570 -0.806780 196 205 210
