ply
format ascii 1.0
element vertex 1170
property float x
property float y
property float z
property uint8 red
property uint8 green
property uint8 blue
end_header
-0.281561 8.841893 -10.898545 200 184 159
-1.789999 -7.856278 -21.743582 230 210 183
-1.808192 -7.998714 -22.024975 230 210 183
-4.090456 -0.519514 -17.310265 212 193 161
-4.759387 -1.518145 -17.645197 207 191 166
-6.568048 -5.631964 -21.054184 248 231 215
4.067164 5.013438 -5.186670 195 200 199
4.234176 3.858692 -5.397787 232 217 210
5.077090 1.247517 -6.697675 119 109 107
4.165097 4.139427 -5.361739 33 17 27
4.048839 4.424380 -5.289976 184 183 179
4.409085 2.865871 -5.840705 204 199 195
4.656542 2.124782 -6.245674 193 175 156
4.664692 2.060190 -6.259095 119 101 82
4.469748 2.572537 -5.965314 143 127 113
4.470665 2.572851 -5.965107 143 127 113
11.159058 -4.309007 -18.137676 180 152 113
3.738565 5.396242 -5.118885 95 94 90
3.622946 6.173520 -5.138072 133 148 155
3.622946 6.173520 -5.138072 133 148 155
11.265157 -6.620204 -19.412556 202 172 134
4.431639 1.277183 -6.531338 176 173 163
4.301442 2.284678 -6.442433 130 114 95
3.758363 4.123991 -5.644860 189 191 188
5.667304 7.835103 -10.803512 116 117 107
5.340048 8.115263 -10.690577 131 119 103
9.883600 -9.844077 -21.761297 167 139 102
3.625452 1.706464 -7.136192 197 185 171
8.113180 -5.728180 -19.284851 181 153 114
4.525420 8.434236 -10.518859 161 149 125
4.603772 8.073918 -11.080012 173 165 146
4.525529 7.784945 -10.979332 162 153 136
4.604562 7.197256 -11.388628 143 137 122
4.174421 9.078684 -10.280915 141 126 103
4.121925 8.829445 -10.387650 164 151 132
3.838372 6.104277 -12.113364 158 152 136
3.796219 5.963717 -12.172246 186 180 164
3.497972 7.464717 -11.351831 161 155 136
3.263411 8.662844 -10.659334 175 162 143
5.255160 -3.341619 -18.273136 195 169 132
3.271626 7.870589 -11.165140 173 162 144
3.117780 6.981646 -11.659245 186 177 162
4.975874 -6.228940 -20.027126 206 180 143
1.334877 3.892817 -5.420477 206 180 167
2.167472 6.644269 -11.987967 168 155 136
2.153556 6.642552 -11.982104 168 155 136
1.178221 5.013597 -6.329056 128 107 80
2.801972 -6.955225 -20.925577 216 191 160
1.076734 6.927516 -11.872848 214 198 173
0.410781 4.779780 -6.283867 97 49 41
0.567128 6.558823 -12.144052 174 160 134
0.339824 -9.203685 -22.582602 229 204 174
0.286877 6.628362 -12.167217 205 193 169
0.180881 5.299263 -6.718796 29 10 1
0.070817 3.279211 -5.367995 112 80 63
-0.252152 -3.585191 -18.560867 188 167 136
-0.509582 -7.502003 -21.462658 229 209 176
-0.078988 4.149026 -5.358427 205 165 139
-1.022754 -8.567358 -21.982889 201 176 146
-0.397570 8.096321 -11.360812 178 162 136
-1.372017 -5.960184 -20.767229 223 202 173
-0.738989 7.082853 -11.985216 185 171 145
-1.115581 6.846274 -12.229442 187 173 147
-1.289838 6.523822 -12.932983 195 183 159
-0.593303 3.927444 -5.291272 29 7 2
-1.189989 7.296704 -11.931702 207 193 166
-0.593709 3.742344 -5.157927 179 156 131
-0.636676 4.298278 -5.562068 41 25 10
-0.732354 2.681930 -6.339280 107 57 20
-0.775181 4.534175 -5.592979 77 61 37
-1.545506 8.620285 -11.292491 196 180 153
-3.957394 -8.356900 -22.668905 215 197 173
-3.998700 -8.465620 -22.887476 215 197 173
-1.267001 3.652005 -5.385276 110 83 49
-2.614627 7.993556 -11.667388 221 204 178
-4.275941 -0.413552 -17.087084 212 193 161
-3.078917 6.765127 -12.431515 195 181 154
-3.206665 6.245758 -12.784949 218 204 178
-3.206765 7.965801 -11.746519 190 173 147
-4.790981 0.546983 -16.566502 248 233 211
-4.594031 1.907953 -15.571146 241 224 198
-3.781891 6.889224 -12.508265 226 210 185
-4.024608 6.741444 -12.591876 223 206 180
-4.025247 7.367160 -12.273069 219 203 177
5.915807 8.016170 -9.623942 0 0 0
4.759274 -0.355704 -7.862208 0 0 0
-0.961881 -3.777102 -18.781675 225 206 180
0.761233 7.909699 -11.321292 165 153 130
2.197230 3.841301 -5.989588 224 208 198
4.325428 7.047093 -11.519034 124 118 102
0.022385 4.590513 -5.690199 177 165 148
3.165502 3.060024 -5.777990 54 47 35
-4.260517 -5.192330 -20.166479 144 134 119
-2.728066 5.119382 -14.246111 215 205 180
2.845804 5.697997 -6.457308 170 175 179
3.935903 6.436962 -13.193110 135 132 118
4.380349 6.266323 -12.043119 154 148 134
8.683965 -6.957672 -20.032694 178 152 115
8.379909 -8.031261 -20.850294 205 179 146
6.893858 -7.891863 -20.961468 215 191 153
5.096196 -2.515179 -17.501686 174 150 116
-1.099893 2.492428 -6.770688 235 220 201
3.906914 3.435516 -5.819386 139 136 131
5.214621 7.258045 -11.093760 154 150 139
2.297053 8.259974 -10.972426 197 185 159
0.986361 5.018599 -6.436921 43 25 11
-0.817017 3.631647 -5.294559 65 47 36
-1.337939 3.995832 -6.016898 71 53 29
-4.986068 -2.113390 -18.097534 223 208 185
11.354154 -5.470218 -19.055841 180 155 115
5.531197 7.652321 -10.831417 122 123 107
3.115510 7.096709 -11.606461 147 144 129
2.821558 6.750582 -11.853032 185 180 161
1.129725 3.378858 -5.295137 221 173 150
3.021924 -2.370292 -17.866884 199 180 150
3.021924 -2.370292 -17.866884 199 180 150
1.678907 7.954435 -11.192116 198 187 167
1.774136 -5.720822 -19.962408 225 204 173
1.789365 -5.773524 -20.077427 225 204 173
0.314441 7.522205 -11.523576 206 194 170
-0.659519 6.351099 -12.416595 215 207 188
-1.604305 6.091971 -12.701921 214 206 183
-1.053486 3.390398 -5.426705 45 14 2
-2.195610 7.364263 -11.881605 214 200 174
-4.089640 5.833576 -13.136744 197 187 162
-7.205395 -4.555337 -19.929270 247 235 219
-4.722575 5.393678 -13.443356 227 212 194
7.838441 -6.927864 -20.222965 183 157 120
7.377966 -6.395724 -19.832031 211 185 148
7.350309 -6.368802 -19.753609 211 185 148
6.048183 -7.186516 -20.221748 195 171 137
2.827771 7.085569 -11.723914 138 132 116
1.202394 3.244536 -5.239221 177 140 121
3.921935 -5.187492 -19.338856 225 200 169
1.503519 7.212807 -11.732623 197 185 161
1.559144 -7.540624 -21.276880 196 175 146
0.471701 7.542727 -11.667123 183 171 147
-0.832982 -6.960750 -20.934301 231 211 186
-1.029742 -4.862614 -19.358717 229 213 179
-1.257095 -6.361737 -20.563597 221 204 178
-3.244907 -1.553293 -17.727270 234 219 196
-6.058410 -4.407379 -19.939730 237 225 203
-5.998010 -3.177476 -19.450548 202 188 162
-6.402995 -1.274734 -17.750898 233 220 201
2.932647 5.230177 -6.054968 188 194 194
5.091019 7.960940 -10.881850 163 154 139
4.911879 7.603274 -11.040041 137 131 117
2.654701 3.478225 -6.002251 189 168 165
5.496006 -4.548151 -18.117823 227 202 171
2.931393 7.806953 -11.256233 173 164 147
3.687964 -7.173340 -20.959644 224 204 171
0.983020 5.335804 -6.878848 105 89 73
2.663033 -9.196698 -21.867422 227 207 174
1.237896 7.851767 -11.416489 176 165 145
1.749818 -7.330047 -20.919891 184 163 136
0.345711 3.919730 -5.514712 107 77 51
1.034425 -7.902979 -21.570402 235 214 185
-0.461513 -9.604413 -22.565365 225 200 170
-0.461886 -9.553893 -22.459297 225 200 170
-0.685538 -2.178173 -17.934198 241 226 197
-0.444381 3.813011 -5.208832 157 131 106
-0.878784 6.236978 -12.509054 210 202 183
-1.045066 7.435520 -11.770101 209 197 171
-1.541733 6.908578 -12.234972 177 166 146
-3.555673 -5.376450 -20.135124 245 230 207
-1.483425 3.186463 -6.755742 98 68 32
-1.597252 3.653553 -6.704650 226 211 182
-4.208019 -1.991444 -17.898239 234 220 193
-4.564160 -2.925275 -18.703455 203 187 161
-6.060095 -9.495440 -22.859629 238 223 204
-6.321600 -9.558292 -23.003876 209 196 179
-4.916543 0.476674 -16.399342 211 204 186
-6.984861 -5.376984 -20.360262 224 212 198
-6.166796 -2.015204 -18.102558 202 187 168
-6.037105 0.422602 -16.826635 222 210 196
-4.551248 6.414575 -12.845908 217 205 179
11.581899 -5.334950 -18.633295 190 164 131
3.499976 4.371381 -5.703971 181 190 195
4.074372 1.259775 -7.059401 180 179 174
3.841882 1.644585 -7.085362 123 116 105
5.529563 7.769459 -10.802134 115 112 94
5.475564 7.851651 -10.717840 127 118 104
2.825858 5.401242 -6.056924 127 133 133
4.669723 6.552167 -11.784047 141 135 121
4.547185 6.722740 -11.670144 173 170 155
4.016955 8.022666 -10.876374 161 155 139
8.215609 -9.207172 -21.593279 211 187 153
3.918406 6.192423 -12.095722 182 178 166
1.771535 3.500221 -5.336497 175 156 139
5.713868 -3.470332 -18.054035 198 174 140
5.062356 -1.539521 -16.777464 197 178 148
3.148465 6.985126 -12.210552 176 170 156
1.524696 4.819975 -6.019808 32 19 3
2.752756 7.994183 -11.142262 180 172 153
5.026895 -5.904669 -19.627781 227 202 171
4.484230 -7.341544 -21.000156 223 199 165
0.959586 4.351789 -5.902486 148 125 117
2.909678 -4.343558 -18.853252 196 175 144
2.880178 -8.112958 -21.461670 187 167 134
2.022935 -9.300145 -22.158039 231 210 179
0.931483 6.965930 -12.010884 169 157 133
1.061461 -8.700946 -21.866747 225 204 173
0.465192 8.318145 -11.242785 157 144 125
0.205750 7.649372 -11.558657 206 194 170
0.143946 -8.309797 -22.036266 198 178 145
-0.363094 -5.638855 -20.048332 193 174 144
-0.293930 6.208543 -12.458250 202 194 175
-0.604614 -6.532875 -20.342888 189 169 142
-0.653123 -7.479930 -21.156601 193 176 146
-0.653123 -7.479930 -21.156601 193 176 146
-0.589544 6.959880 -11.971999 209 199 174
-2.695275 -6.964594 -21.287691 237 221 196
-3.238342 -7.856287 -21.674063 217 201 177
-3.572752 -5.789868 -20.368591 246 230 212
-1.292465 4.082856 -5.801219 69 51 27
-4.057115 -6.638977 -21.164679 213 198 175
-4.057115 -6.638977 -21.164679 213 198 175
-1.489138 3.213923 -6.319713 167 144 113
-5.148192 -8.894655 -22.635412 218 204 178
-5.215485 -8.697210 -22.529755 240 226 200
-4.856943 -3.405469 -19.242311 231 216 195
-3.350377 6.106159 -12.871558 174 166 145
-5.489786 -3.381537 -19.178324 199 183 158
-4.744500 0.684867 -16.374798 202 190 166
-3.777740 6.870299 -12.455196 221 209 185
-5.577362 -0.562576 -17.243822 239 224 201
-4.687048 3.112702 -14.572312 214 204 179
-3.921580 6.865988 -12.489494 211 195 170
-3.993162 6.616335 -12.618767 190 176 150
-6.465504 -2.544031 -18.876276 242 227 208
-5.826698 1.058427 -16.264601 240 225 206
-1.471098 4.033844 -6.090583 221 207 181
-1.713465 7.084656 -12.068336 186 174 150
1.523657 8.367983 -10.990655 200 192 166
-1.295965 3.157670 -5.748795 60 39 17
3.619878 3.239666 -6.228800 190 192 194
0.336691 2.841363 -5.747287 82 39 12
2.717055 2.491834 -6.482758 189 174 158
2.788338 3.587782 -5.603594 170 165 157
2.796095 2.745494 -6.802662 104 84 72
3.201769 5.355555 -5.584860 123 123 121
-5.090579 -2.954330 -18.519096 205 189 164
1.998969 4.220633 -5.959531 234 213 208
2.279630 5.001230 -7.469346 194 188 172
4.611730 7.181003 -11.486396 149 145 133
-1.289632 3.928527 -5.866561 109 91 66
-4.010992 4.654495 -13.811696 193 186 167
4.285683 6.640880 -11.706575 174 171 156
-0.030041 5.529301 -7.023425 187 174 155
-3.004269 -7.311516 -21.439854 234 219 196
-6.218688 -3.343112 -19.122797 223 208 186
3.338258 2.834586 -6.224877 185 175 163
10.135552 -7.690913 -20.463926 216 188 151
2.956936 -6.265874 -20.048365 217 192 161
0.995308 -7.397934 -20.972046 226 207 177
-0.322501 -4.369643 -19.355558 220 201 171
-2.487279 -6.413469 -20.677135 214 199 170
3.564433 2.082026 -6.197491 187 180 172
2.799558 3.262673 -5.494361 191 192 186
2.680740 5.805464 -5.648631 178 188 189
5.281686 -5.980567 -19.711237 202 178 144
5.008724 -7.587382 -20.762161 228 205 171
2.395691 -5.187947 -19.466434 200 179 148
-0.023735 3.384012 -5.282386 243 204 173
0.479404 -5.155001 -19.594259 222 203 173
-0.100233 4.007892 -5.440486 99 61 22
-0.731095 4.889520 -6.392428 90 70 43
-2.092488 -4.179866 -19.261904 211 195 170
-6.357218 -6.380905 -21.190619 217 204 187
-4.614355 2.750762 -15.052348 210 198 172
-5.536297 0.403376 -16.811838 241 228 212
-5.557247 -0.034781 -16.843410 240 225 202
-5.951306 -0.147005 -17.142815 216 200 183
3.342410 5.266938 -5.596535 126 127 121
5.801028 8.185410 -10.720085 148 139 122
3.181763 3.849608 -5.913992 181 209 221
3.053324 3.820869 -5.858023 91 119 131
9.182733 -7.720440 -20.431232 217 191 154
4.769089 6.994725 -11.539499 155 151 139
8.968575 -8.091191 -20.752985 169 143 106
8.898383 -8.865258 -21.086437 182 157 121
7.963912 -6.607366 -20.092585 212 184 147
6.491857 -8.404016 -21.261127 197 171 138
1.538554 5.064823 -6.322679 156 146 132
5.035538 -5.827532 -19.916790 225 201 167
2.806828 6.746117 -11.848572 184 178 164
3.933856 -5.513414 -19.385176 224 204 171
3.991298 -7.528806 -20.693665 229 205 167
3.991298 -7.528806 -20.693665 229 205 167
3.549620 -5.905540 -20.041883 222 202 169
0.801997 4.635415 -6.268276 138 69 53
3.087589 -7.077791 -20.772823 188 167 136
3.023124 -7.547402 -21.077831 223 202 171
2.347123 -8.831341 -22.056465 205 185 152
2.347123 -8.831341 -22.056465 205 185 152
-0.172937 5.388368 -6.403030 206 193 174
-0.004254 -7.205884 -20.979296 225 206 176
-0.286039 5.053372 -5.901227 90 74 51
-0.578780 4.181929 -5.485343 81 55 25
-0.717318 3.730685 -5.349995 165 149 123
-1.076301 7.507473 -11.801920 202 190 164
-3.251519 -6.501560 -20.970295 206 190 164
-4.127195 -9.744110 -23.293131 238 223 200
-4.403470 -6.434820 -20.949772 214 199 180
-5.886108 -3.949855 -19.456499 246 233 216
-5.743264 -1.695741 -18.072632 229 214 191
-5.672371 -1.111089 -17.555906 202 188 162
-5.721203 -1.150208 -17.731121 202 188 162
-6.423800 -4.242138 -19.785498 243 231 215
-6.306149 -3.688915 -19.067171 233 221 205
3.972191 3.206642 -5.997606 167 171 172
2.714012 3.214473 -5.512432 41 13 2
9.248788 -8.479089 -20.902514 213 187 150
8.704288 -6.829160 -20.073774 172 146 109
4.567245 7.373992 -11.445470 174 168 155
7.276989 -4.516353 -18.963140 186 160 127
6.689580 -5.306298 -19.312571 213 189 155
5.737048 -5.901806 -19.655294 197 172 141
1.192422 3.091189 -5.245877 174 131 115
2.560198 7.110863 -11.575231 151 142 125
2.568444 7.121547 -11.673992 151 142 125
0.998022 4.780299 -6.267721 18 10 6
3.710309 -7.289861 -20.716000 187 162 131
3.828145 -9.201407 -22.053942 195 170 139
0.820330 5.234590 -6.389894 43 30 14
0.787890 5.278852 -6.251080 99 82 59
2.414406 -4.370651 -18.953484 208 189 157
2.206520 -6.877819 -20.692722 183 164 132
2.399120 -9.247487 -22.163527 224 203 172
0.371577 4.970510 -6.107039 12 5 1
1.895172 -7.258609 -21.159651 228 209 177
1.509019 -3.110686 -18.205111 186 169 141
1.858056 -8.459538 -21.747530 201 180 149
1.851508 -8.410537 -21.652143 201 180 149
-1.376534 -7.681071 -21.356544 237 218 191
-1.894751 -8.097182 -21.752314 210 190 165
-2.761815 -7.712032 -22.023762 235 221 195
-2.737336 -7.375886 -21.432774 235 221 195
-2.767537 -6.897802 -21.560499 204 189 160
-1.220815 3.198218 -5.734283 120 86 48
-3.948288 -4.073129 -19.756947 244 228 203
-3.728760 -0.521538 -17.005104 229 213 187
-3.739695 -0.529810 -17.057062 229 213 187
-5.344352 -9.140647 -22.687531 238 223 204
-5.344352 -9.140647 -22.687531 238 223 204
-4.402953 4.373158 -14.288251 199 185 162
-6.328474 -4.617734 -20.115248 214 201 184
-6.477579 -4.960728 -20.289083 243 231 215
-4.514548 4.815160 -13.785537 219 206 187
-5.499017 0.745421 -16.434437 206 193 174
-5.965283 -0.625766 -17.424326 236 221 198
-6.402995 -1.274734 -17.750898 231 218 194
5.211776 7.601511 -10.909892 132 129 114
9.477461 -8.302687 -20.858593 185 159 122
8.841064 -7.330758 -20.149841 177 151 114
8.698477 -6.543469 -20.044891 209 183 146
4.553936 6.934295 -11.553323 163 159 147
7.343783 -3.929249 -18.357199 215 189 152
8.288685 -7.422806 -20.432535 185 159 122
4.495433 6.509009 -11.797442 144 140 128
7.276597 -7.743289 -20.700052 190 164 127
1.797878 3.064764 -5.614429 175 130 101
3.726988 5.882371 -12.216054 146 143 128
6.381691 -7.736192 -20.796356 224 200 166
5.563967 -5.130443 -19.570642 226 202 168
4.030509 -3.114162 -18.037992 181 161 128
4.480340 -7.572896 -20.835794 223 199 161
4.480340 -7.572896 -20.835794 223 199 161
4.561007 -8.581024 -21.579849 220 196 162
4.258609 -7.076017 -20.561373 227 203 165
2.222161 7.333404 -11.629919 187 176 156
2.159518 6.858366 -11.851564 194 183 165
3.871113 -8.820701 -21.894571 199 175 141
3.831189 -8.689237 -21.670862 199 175 141
3.617600 -7.009319 -20.662998 224 199 168
2.922112 -2.965595 -18.043385 217 198 166
2.473580 -4.086893 -19.003551 201 182 150
2.719559 -6.927155 -20.555548 175 154 123
2.730783 -8.264754 -21.514824 230 205 174
2.741147 -8.299953 -21.583822 230 205 174
0.577693 4.652918 -6.276262 255 237 225
2.201028 -4.965130 -19.352367 229 208 177
2.164866 -5.961869 -19.975365 184 163 132
2.083361 -7.582555 -21.076418 193 174 142
2.025190 -8.399744 -22.047361 234 214 181
1.713235 -6.716918 -20.519939 189 169 140
0.193100 4.679314 -6.018704 18 11 3
0.828416 -7.519294 -21.382170 229 210 180
-0.114346 4.346658 -5.618623 120 100 84
0.219088 -9.428133 -22.416180 228 207 178
0.006413 -3.460938 -18.720901 176 157 127
-0.227318 -2.346485 -17.944489 188 175 143
-0.249090 -7.659026 -21.385132 200 181 148
-1.478503 -3.826504 -18.928728 222 206 180
-0.877585 8.012729 -11.401551 208 198 174
-0.632196 3.828310 -5.069339 55 42 23
-1.585293 -4.591210 -19.601603 240 224 198
-1.808819 -3.292991 -18.839392 227 210 180
-1.934661 -3.585073 -18.990252 207 190 162
-2.324318 -6.597183 -20.864729 196 181 152
-2.323978 -6.596422 -20.867529 196 181 152
-2.493141 -5.337873 -20.010441 228 212 187
-1.773503 5.608190 -13.008619 214 206 185
-1.027305 3.507179 -5.370258 32 12 0
-2.818762 -3.039466 -19.041784 201 184 154
-3.432282 -6.893186 -21.204674 248 233 210
-3.423394 -4.276895 -19.755384 241 226 203
-3.006911 4.401316 -13.864731 228 216 192
-4.842178 -7.023520 -21.319382 205 190 171
-5.660587 -8.178438 -21.978550 240 225 206
-4.421737 0.914156 -16.194815 206 191 168
-5.356911 -4.080863 -19.541203 209 194 171
-5.876537 -6.377106 -20.935555 207 194 177
-4.759903 0.134562 -16.843958 239 229 209
-5.637558 -4.334314 -19.880552 238 224 198
-5.085914 -0.509740 -17.174236 244 229 206
-6.115057 -3.885637 -19.349886 210 197 180
-5.802557 -2.450778 -18.380806 226 210 184
-6.840747 -6.457189 -21.251396 245 233 217
-5.293483 0.737312 -16.399385 199 186 167
-6.440194 -2.849155 -18.919025 199 184 165
-5.728168 0.239338 -16.723490 202 189 170
-7.205412 -5.252769 -20.465263 248 236 222
-4.250026 7.087591 -12.401998 217 205 181
-6.224642 -1.111974 -17.638685 198 182 159
-6.296497 -1.164390 -17.856922 198 182 159
-7.123544 -4.410531 -19.986652 220 208 192
-4.325393 7.015246 -12.451881 191 179 155
-6.209692 -0.163704 -17.247145 241 225 209
4.093197 2.582861 -6.354047 117 103 87
4.028096 2.604151 -6.304322 117 103 87
3.744384 3.445580 -6.060092 143 136 131
3.259374 5.397465 -5.517638 92 90 87
3.336979 4.199093 -5.835032 148 160 158
11.692858 -7.091765 -20.027655 173 147 110
3.638452 2.736000 -6.533299 195 186 169
11.362953 -7.119022 -20.093664 171 145 108
11.293635 -7.060568 -19.968321 171 145 108
10.553571 -5.564366 -18.923096 213 187 150
3.190955 4.636919 -5.897608 108 113 116
3.091457 5.127946 -5.763467 103 107 102
5.557355 8.106088 -10.679475 122 113 96
2.974725 5.590369 -5.883343 165 169 166
2.788343 3.458870 -5.695443 76 41 14
2.969092 4.770080 -6.145390 94 99 102
2.833162 4.868747 -6.288942 84 95 98
5.011792 7.548538 -11.308315 167 161 147
8.887395 -6.427134 -19.618448 180 154 117
4.730134 7.005640 -11.773884 140 136 124
7.468469 -3.230540 -17.902529 211 185 148
9.052250 -8.881001 -21.574030 204 178 141
9.054691 -9.202600 -21.491194 179 155 121
7.674134 -4.562626 -18.638514 196 170 137
2.562004 2.895429 -6.626823 179 143 123
7.876171 -6.367494 -20.119886 190 162 125
2.162621 3.652158 -5.838259 117 104 95
7.097201 -4.222597 -18.745485 219 193 160
4.098809 7.359156 -11.484841 150 147 132
6.806081 -4.503885 -18.479513 189 163 130
7.634442 -7.462189 -20.839960 209 183 150
6.974054 -6.191703 -19.736555 214 188 151
6.007542 -1.954546 -17.595270 192 171 140
6.917041 -7.360339 -20.450018 197 171 134
3.830116 6.359348 -11.983630 156 153 138
1.518852 3.412517 -5.273348 186 150 120
3.301373 6.224854 -12.100271 171 167 154
5.604925 -5.723231 -19.722637 224 200 166
2.867309 8.317088 -10.856857 152 140 124
4.876737 -2.773678 -17.647980 179 159 126
3.044310 6.803389 -11.763358 142 139 124
1.588598 4.937965 -6.473052 103 86 68
4.394650 -1.299734 -16.702696 213 196 166
4.335920 -2.154769 -17.338806 162 143 111
2.793117 6.734565 -11.831982 185 179 165
4.878936 -5.460304 -19.695244 200 180 145
4.151364 -2.713894 -17.629118 215 195 162
5.663117 -1.199069 -16.181614 218 197 166
4.317896 6.242746 -11.934466 143 131 115
3.510545 7.512785 -11.378402 166 160 144
3.608726 6.720289 -11.750225 180 176 164
2.383005 6.276065 -12.081840 200 189 171
2.944617 8.055184 -11.035095 151 146 127
1.276914 2.967781 -5.268580 205 157 155
1.243934 4.596663 -6.008680 87 69 55
1.303762 5.126612 -11.247182 178 166 140
2.873426 7.503809 -11.383316 183 177 161
-0.699157 2.365053 -7.820521 177 162 133
2.889674 7.522782 -11.449731 183 177 161
-1.079203 2.566877 -6.771445 107 74 44
2.775518 7.446704 -11.459989 154 148 131
-3.958201 8.584151 -4.699734 198 176 153
2.771373 7.443169 -11.449163 154 148 131
1.140855 4.987391 -6.141569 119 99 75
3.178837 1.537997 -8.009190 208 182 155
2.535627 7.446736 -11.452193 195 187 166
3.128412 1.702108 -8.267396 213 187 160
1.015699 4.567249 -6.166115 210 149 130
3.128412 1.702108 -8.267396 213 187 160
3.922105 -4.157984 -18.698313 229 204 173
4.881814 5.874040 -12.066318 158 146 130
0.893078 4.598623 -6.218724 252 207 201
4.761007 5.402534 -12.346120 197 185 169
3.703860 -3.997920 -18.598251 194 174 141
3.992636 5.984187 -12.146369 188 176 160
3.703860 -3.997920 -18.598251 194 174 141
3.000961 5.755997 -5.882891 201 206 201
2.687477 -3.712780 -18.496841 231 212 180
2.065017 2.821746 -6.401900 86 42 3
0.347103 4.631453 -6.067235 46 22 12
3.130998 4.776617 -12.829726 140 125 106
2.056721 -1.413208 -17.087181 234 218 192
1.906365 2.635268 -5.758132 125 81 42
2.073826 -1.451449 -17.197546 234 218 192
1.814200 2.599312 -6.203039 122 78 41
0.279502 4.495688 -5.923678 15 10 4
1.952728 4.229838 -13.364232 172 156 133
0.299512 5.307898 -6.653304 127 112 93
0.948520 5.202266 -12.856737 194 179 160
0.943629 7.333019 -11.812415 208 198 173
-0.047125 2.064080 -7.372980 111 83 49
0.049673 4.076005 -5.499611 89 51 27
-0.393491 6.874608 -12.097631 182 168 142
0.804067 7.072206 -11.929371 178 168 143
-0.700045 6.225008 -12.651054 174 159 136
-0.169561 4.727172 -5.758403 123 110 90
-0.775376 2.393101 -6.744621 110 75 44
0.347778 7.323420 -11.755257 205 195 170
-1.036830 2.553415 -6.792319 62 27 8
-0.194510 4.629254 -5.635836 113 102 86
-3.924569 4.706862 -13.763008 162 147 128
-0.334214 4.511727 -5.668378 67 54 38
2.348176 3.202164 -6.029792 132 103 78
-0.378327 4.852799 -6.113234 71 56 33
0.170445 2.766267 -5.610430 159 113 89
-0.470307 3.990405 -5.254443 69 38 17
0.850511 2.666275 -7.408968 159 83 41
-0.526262 -1.191044 -16.996239 230 214 188
-0.805821 5.451170 -12.952937 172 162 142
-0.687323 3.990599 -5.369558 101 64 28
3.320946 5.521678 -5.489756 189 196 201
-0.823874 4.441969 -5.668111 130 115 90
0.238435 5.440427 -12.844979 174 160 135
-0.826782 4.515623 -5.618953 139 128 98
1.667553 2.657896 -5.733665 161 101 52
-0.833080 3.959048 -5.414657 81 51 20
4.041628 3.826117 -5.657845 109 112 109
-1.098069 -3.235675 -18.604095 232 215 187
-4.746020 7.083729 -12.414577 175 160 136
-1.033208 6.866818 -12.229762 175 165 144
2.803334 2.661333 -6.125237 130 112 97
-1.589630 -4.599006 -19.604010 239 223 197
4.271780 4.478144 -5.101521 200 205 208
-1.165292 4.028659 -5.866098 65 49 26
-5.354447 7.274528 -12.408953 198 181 156
-2.216999 -4.573873 -19.528477 241 225 202
-1.487022 4.151889 -13.744400 189 180 162
-2.144348 -1.940672 -17.606670 204 189 166
-2.156227 -2.003018 -17.803938 204 189 166
2.034075 2.960379 -6.164530 88 48 13
-1.880285 6.545928 -12.440356 212 201 181
-0.919375 3.257133 -5.707197 56 28 14
-1.817635 8.754919 -11.097313 213 201 175
-2.270851 0.395970 -16.232840 243 234 213
-0.733860 3.807503 -5.182580 226 223 214
-2.786319 -4.931945 -19.971743 198 182 159
-1.493122 2.635589 -6.471892 190 163 134
-3.035553 -0.904597 -16.975327 236 221 198
-5.751102 8.124120 -12.005877 208 188 163
-3.304188 -2.261446 -18.102018 219 203 178
3.350631 2.972485 -6.556206 75 68 60
-4.062185 -2.175308 -18.135509 212 197 174
3.371727 5.315884 -5.605638 134 135 130
-4.044641 -1.685532 -17.798567 216 202 176
2.818561 3.483195 -5.574537 197 207 203
-4.619432 -4.675871 -19.999197 210 195 172
4.239351 1.975135 -6.650476 172 170 163
0.261419 2.526652 -8.666067 205 196 168
4.208268 1.913718 -6.677312 129 128 123
0.027314 3.172003 -5.489444 211 165 149
3.391540 5.175458 -5.511092 86 86 84
3.509559 2.748398 -6.639351 202 190 176
3.477373 4.805285 -5.656225 168 176 178
4.242490 5.508683 -12.467439 191 179 163
3.310343 6.011786 -5.364617 148 166 168
3.794029 2.845260 -6.363116 187 180 172
3.425875 4.932749 -5.605521 120 122 121
4.704912 4.349401 -12.975424 185 168 150
11.280002 -3.285800 -17.373962 178 149 115
3.083158 2.609432 -7.172274 128 112 89
3.272564 4.368790 -5.892907 115 126 128
2.520006 2.668767 -7.285645 197 167 139
3.008817 5.519783 -5.827926 170 170 170
3.611929 5.781488 -5.292382 156 168 168
2.798990 3.970354 -5.641109 204 225 234
1.976643 3.379133 -7.852724 172 158 141
2.843495 2.865981 -5.844022 107 102 106
1.670413 5.414731 -12.751328 209 194 171
2.969482 5.166584 -6.026837 116 126 127
-0.386256 2.167226 -7.314103 125 81 36
9.515425 -4.966206 -18.737324 221 195 158
3.284102 1.427515 -7.542709 212 191 164
2.896657 3.139498 -5.744617 34 31 24
2.640917 4.751738 -6.276927 191 211 220
1.157686 6.189850 -12.286417 203 191 167
4.677350 8.411592 -10.682345 131 126 107
2.319143 3.879776 -5.944174 207 188 182
4.486065 8.889676 -10.404999 131 126 107
5.581476 4.283658 -13.004491 166 151 132
8.022217 -4.576301 -18.518042 186 160 127
2.841005 2.834827 -5.888597 188 173 156
4.658525 7.750596 -11.104894 128 122 108
3.628585 4.675168 -12.957562 197 182 163
4.825225 6.758403 -11.874586 171 167 155
1.908967 6.307041 -12.190784 206 194 172
2.312952 4.722201 -6.471097 210 234 246
0.508670 6.352641 -12.269194 179 167 143
4.587459 6.795600 -11.629903 128 124 112
-0.194872 6.512281 -12.270371 212 198 172
6.874713 -2.459604 -17.367275 211 185 148
-1.276375 3.073768 -5.833022 182 157 127
4.453217 7.021054 -11.506189 131 127 115
4.188407 7.651614 -11.130414 167 165 144
4.501283 5.544851 -12.228616 169 157 141
1.604558 3.239906 -5.323262 225 191 164
2.837276 2.618954 -7.613454 127 105 82
3.906911 7.696239 -11.213644 167 165 144
2.738442 5.427358 -12.453212 185 176 159
3.981895 7.094756 -11.529564 161 158 140
1.814471 3.310664 -7.886179 53 36 21
4.008247 7.117884 -11.619393 161 158 140
1.720548 3.472307 -8.140624 171 158 142
3.438802 8.666781 -10.664292 143 137 121
-0.494750 3.943720 -5.218571 226 223 214
1.379331 3.306556 -5.328545 154 119 117
-1.240248 2.711686 -6.466995 161 132 102
5.511561 -2.035330 -17.052486 219 199 166
-1.465146 3.636605 -6.066930 201 174 144
5.023003 0.070698 -15.660295 219 205 178
1.409798 3.978078 -5.503765 230 211 196
4.122287 2.404913 -6.467096 98 82 67
1.370417 3.862668 -5.398499 242 215 206
5.508206 4.421422 -12.916228 185 170 151
5.092049 -0.368455 -15.998336 183 164 134
3.866316 3.203140 -6.149489 150 141 131
1.302452 3.264593 -5.272035 221 191 176
5.136609 3.819139 -13.301568 181 164 146
3.367343 7.563239 -11.306712 169 163 147
2.864175 2.987657 -5.823026 141 144 137
3.377831 6.978299 -11.674954 168 164 152
1.583483 2.819135 -5.456133 139 98 66
3.219345 7.061967 -11.610317 135 132 119
1.118871 6.250910 -12.272647 211 199 175
4.985143 -3.020748 -17.783051 219 195 161
4.921100 -2.821880 -17.790867 191 167 133
0.101950 6.265865 -12.398529 207 192 169
2.833444 8.642792 -10.722577 167 159 140
0.251291 2.059930 -7.533051 44 17 0
2.657635 9.219881 -10.412645 163 152 132
-0.382560 2.123521 -7.407887 117 83 48
2.658392 9.209014 -10.387181 163 152 132
2.597766 7.573593 -11.388860 174 167 148
3.728130 2.261130 -6.894604 151 137 126
4.262660 -4.238974 -18.689497 231 207 173
5.038408 3.972379 -13.263718 143 126 108
3.996008 -3.019101 -17.839685 191 166 135
3.211040 1.563936 -8.189169 135 109 82
4.121633 -4.023167 -18.540670 195 170 139
3.151478 3.055242 -6.084381 139 145 145
0.943789 4.540124 -6.175619 252 225 218
3.005732 1.981011 -8.035067 186 158 134
2.291127 7.184927 -11.639257 179 171 152
2.127918 7.889710 -11.170615 176 168 147
3.933384 5.666622 -12.366230 170 159 141
3.586185 -3.306878 -18.197046 220 200 167
3.290576 -2.243028 -17.341599 224 203 172
3.535545 4.049748 -13.289036 196 178 156
3.288131 -3.020152 -17.939819 188 163 132
3.699111 5.640805 -12.457223 171 160 142
0.753220 4.585276 -6.303534 239 200 199
2.935032 4.234762 -13.220664 163 147 124
1.933236 7.528841 -11.537513 216 205 183
2.947539 7.108068 -11.625149 171 169 154
1.901214 7.421144 -11.549346 151 140 120
2.758374 5.113684 -12.743499 162 151 133
3.126644 -4.178823 -18.726530 225 205 172
2.513229 4.630761 -12.930033 147 132 113
1.362069 8.799746 -10.776649 143 135 116
1.535996 2.843690 -5.353065 167 138 117
0.336613 3.933106 -5.422832 109 80 51
1.668452 4.420897 -13.343159 165 150 127
0.382929 4.318358 -5.821496 121 97 84
1.442968 6.384614 -12.197488 203 190 165
0.424027 4.780010 -6.238452 121 63 52
1.151951 5.130009 -12.930222 195 180 161
2.107695 -1.189572 -16.898098 206 190 164
0.320450 5.704896 -12.622658 171 159 135
0.220128 3.436951 -5.355232 158 123 107
0.574421 2.507314 -6.789340 148 80 33
2.338777 -5.180094 -19.430332 199 178 147
0.433767 2.168680 -7.516408 36 3 0
1.116593 7.601421 -11.570012 178 168 143
-0.197714 4.315805 -13.579937 199 182 156
0.543302 7.874794 -11.400002 195 184 164
-0.432248 6.316745 -12.382708 212 197 174
1.047614 -4.259459 -19.075142 236 217 187
0.187058 2.433304 -6.059834 205 136 94
0.389698 7.056156 -11.977714 210 200 175
-0.067114 3.966274 -5.310500 236 220 198
-0.053427 2.052818 -7.530451 62 34 8
-0.309524 2.311796 -7.125407 44 17 6
0.309682 7.188382 -11.898925 172 162 137
-0.613188 3.843779 -5.314960 226 217 200
0.136958 7.609016 -11.526839 178 166 140
-2.116923 6.982673 -12.196238 213 197 171
-0.320603 4.642504 -5.795259 133 120 104
-0.771921 2.392591 -7.368610 77 42 8
0.083566 7.149413 -11.891267 211 201 176
-0.804875 2.383490 -7.442938 95 65 31
-0.391733 3.861962 -5.401765 94 64 38
-4.214358 8.129616 -11.690334 205 186 158
-0.022193 7.335264 -11.787342 203 193 168
-5.538596 8.653461 -11.634796 175 155 128
-0.026729 7.325785 -11.770084 203 193 168
1.694349 6.851108 -11.888309 163 152 129
-0.060338 -1.196990 -17.068874 202 185 159
2.937235 2.456658 -6.845578 117 101 84
-0.057245 -1.181147 -17.005255 202 185 159
-0.605781 3.917764 -5.290089 36 13 6
4.071415 6.055907 -12.119318 100 95 85
-0.491358 -3.557658 -18.670494 223 204 172
0.081952 6.402293 -12.299333 176 164 138
-0.539091 -1.683972 -17.454380 193 177 151
4.136124 3.757737 -5.547140 175 175 170
-0.867575 -4.055984 -19.093344 181 162 132
3.232938 3.201017 -6.216439 84 86 83
-0.822675 6.445531 -12.365585 218 210 191
-0.269714 2.398564 -8.329586 183 167 141
-0.808290 3.584954 -5.377839 34 17 1
0.280972 2.750464 -5.746043 66 35 20
-1.046820 -5.051682 -19.763792 235 215 188
-1.424156 2.946441 -5.735434 220 189 158
-0.947068 8.379085 -11.409767 207 193 166
3.191480 6.194625 -5.382106 212 223 227
-1.095581 6.331015 -12.492094 167 159 138
2.522999 5.486906 -12.434477 201 192 175
-1.159397 8.950575 -10.925214 169 157 133
1.452501 2.513934 -5.935336 203 124 77
-1.506766 -3.587827 -18.880590 198 181 153
-0.563796 5.829912 -12.617587 205 191 165
-1.275520 6.024690 -12.694759 181 173 152
-6.224074 17.764458 -4.590589 91 89 90
-1.974811 -1.741023 -17.633127 215 199 176
-1.792015 6.151196 -12.631325 207 192 163
-2.170035 -4.804458 -19.636446 212 194 170
-5.605238 5.112279 -13.776134 196 180 157
-2.361313 -3.577413 -19.051044 214 198 173
1.971700 3.398610 -7.859625 185 172 140
-2.310779 -0.757066 -16.968630 243 228 207
0.925347 5.947567 -12.403570 181 168 149
-2.005522 6.570588 -12.439500 214 203 183
-2.516480 0.254509 -16.416945 246 235 217
3.237278 2.715420 -6.613554 34 31 21
-2.630078 -1.321311 -17.347820 207 194 175
1.067177 2.780495 -5.482494 204 119 71
-3.050780 -0.449714 -16.738260 240 225 202
0.698119 2.166549 -7.626922 38 9 2
-3.203652 -1.207624 -17.408876 195 183 159
-0.413535 6.157260 -12.314756 203 188 165
-3.148214 0.747264 -16.149403 236 223 204
-4.179466 0.315943 -16.522947 244 229 206
-7.765458 17.490232 -4.479952 165 178 184
-4.892625 -4.392109 -19.850914 211 196 177
2.888389 2.877360 -6.213262 146 127 110
-4.887212 -4.389135 -19.831415 211 196 177
-7.467855 17.344900 -4.289105 69 84 89
-5.401181 -4.130346 -20.421125 209 194 169
3.069909 2.625034 -6.751988 148 131 115
-3.508509 8.210457 -11.647868 180 166 140
3.990072 4.974661 -12.670381 193 178 159
-5.427845 -4.452576 -19.971987 246 230 214
1.192285 2.517627 -6.621188 183 116 71
3.665592 4.105109 -5.639080 178 184 187
0.954040 5.463706 -12.835014 178 163 144
3.510470 5.049824 -5.475211 107 108 107
0.165780 2.129560 -7.131160 32 2 0
3.407459 5.375889 -5.400102 211 215 216
0.083291 3.341452 -5.299925 104 92 96
3.575318 4.091177 -5.680347 183 192 194
-1.383656 3.097575 -6.631543 153 122 93
4.180891 1.960022 -6.688396 129 124 120
4.005613 3.392429 -5.911538 82 66 51
3.623521 2.682148 -6.309562 194 181 162
3.348362 1.379478 -7.748631 196 180 157
3.267801 5.216856 -5.684845 152 154 151
3.948705 4.180194 -13.195890 194 178 155
3.272601 5.219502 -5.692620 152 154 151
2.874368 2.499749 -6.483754 79 72 56
3.201759 4.928247 -5.827453 186 197 199
3.767797 4.625241 -12.974606 173 157 134
3.115455 5.766966 -5.674945 110 114 113
2.662431 2.410213 -6.828919 127 107 80
5.920586 8.930931 -10.194196 104 98 84
2.600349 2.430957 -6.838783 210 184 160
3.187876 4.412320 -6.007913 91 104 112
2.633591 2.953629 -7.631398 58 38 14
3.072139 3.972166 -5.811139 90 118 130
2.126540 2.979112 -7.674417 193 178 157
3.099772 3.970207 -5.882032 90 118 130
2.010077 3.479947 -7.831559 180 159 130
5.526376 9.065268 -9.995110 117 111 95
3.039327 4.605296 -6.080646 86 98 100
-0.001468 2.928638 -8.525538 178 143 105
2.912636 5.665239 -5.982137 187 196 195
0.161923 2.423990 -6.124605 184 106 54
2.923771 4.430260 -6.037750 73 100 112
-0.181947 2.112886 -7.202569 35 4 0
5.420037 8.627910 -10.367543 125 119 105
-2.009982 5.461993 -13.120953 179 164 141
9.389397 -4.335210 -18.329851 215 189 156
-0.847186 3.633418 -5.354278 204 177 160
9.270290 -4.091507 -18.185486 201 175 140
3.901514 2.318132 -6.714828 196 178 164
9.368880 -5.075090 -18.838995 196 170 135
3.680726 0.997019 -7.780248 129 108 87
2.834854 4.871648 -6.298187 86 102 102
5.057927 4.169755 -13.134167 148 133 114
8.754406 -3.539348 -17.951408 227 202 161
3.521900 1.847969 -7.354361 125 112 99
8.874397 -4.904581 -18.712414 190 164 131
3.373670 2.930968 -6.524781 125 118 102
8.861690 -4.892930 -18.674450 190 164 131
3.198187 1.548458 -8.021301 209 182 155
8.343814 -3.422900 -17.617210 223 195 156
8.453301 -3.545994 -17.873043 223 195 156
3.800840 4.189001 -13.307405 168 152 129
8.546312 -3.785888 -18.142521 194 169 129
8.680614 -4.575704 -18.456902 218 192 159
4.971626 8.215707 -10.662402 155 149 133
2.082598 3.035554 -7.581137 86 63 39
4.734993 9.148080 -10.206262 123 118 99
4.984869 8.316567 -10.752789 129 123 107
1.780252 5.355081 -12.860394 207 192 173
4.788996 8.443236 -10.590206 163 158 139
1.582390 2.628032 -6.674188 134 75 33
4.784739 8.441271 -10.581057 163 158 139
1.398775 2.691007 -6.931870 149 84 42
8.438292 -4.871244 -18.694111 222 196 163
1.348466 2.472425 -6.309197 200 127 82
8.347167 -4.746839 -18.756115 189 163 130
0.974650 2.819098 -5.490996 138 58 17
8.165527 -4.476105 -18.527155 220 194 161
0.214176 4.121211 -13.630645 152 136 111
4.848690 7.220801 -11.306870 123 119 107
0.186925 4.368647 -13.437413 157 141 116
4.791327 7.615481 -11.214471 162 156 140
0.554798 2.704048 -7.330576 116 45 6
4.342707 9.031436 -10.318331 120 115 96
4.177516 9.084532 -10.297129 140 135 116
-4.146920 8.275281 -11.649289 179 159 132
4.641411 7.108501 -11.459748 173 167 155
-0.002490 2.830226 -5.591616 222 169 140
4.746472 6.589584 -12.001616 140 136 124
4.384767 7.690179 -11.107242 155 149 133
-1.306435 2.695403 -7.475071 117 111 100
6.359105 -0.540141 -16.032764 179 158 127
4.431060 4.053460 -13.293463 196 182 164
6.568032 -2.160123 -16.930641 185 159 124
-5.812887 4.384434 -14.160408 206 190 164
4.401183 7.109401 -11.505079 159 153 141
2.729606 2.532665 -6.370305 226 194 171
4.363390 6.966455 -11.576706 157 154 139
3.384225 4.993179 -12.755144 158 146 131
5.988258 0.122352 -15.602946 190 171 140
-5.452636 3.554848 -14.559935 210 196 172
6.001709 0.123476 -15.660766 190 171 140
4.454806 3.933343 -13.253253 145 133 117
5.733339 0.176868 -15.551754 193 174 144
-5.564182 6.449002 -12.957726 181 165 140
6.179861 -2.282429 -17.230097 186 163 129
-1.721484 4.093940 -13.850104 223 209 183
5.825555 -1.262119 -16.640102 219 198 167
-3.679472 6.625898 -12.611361 186 174 150
5.948032 -1.638653 -16.954878 197 176 145
-4.083238 4.152013 -14.168556 179 162 137
6.742434 -5.499110 -19.236710 184 158 125
-6.686974 11.090084 -10.217424 183 157 125
6.751162 -5.525592 -19.291489 184 158 125
2.034194 3.147043 -6.194578 90 48 13
1.426434 3.801759 -5.365000 235 207 196
-0.359331 2.787803 -6.403219 225 143 85
5.303328 -0.391985 -16.001842 183 164 134
1.473763 2.925281 -8.435550 198 186 162
5.545812 -1.337543 -16.716890 215 194 163
5.429651 -1.126237 -16.468658 188 167 136
2.871594 4.073983 -13.399376 190 174 151
5.319888 -1.086488 -16.476894 220 199 168
2.520723 5.487262 -12.430025 197 188 171
6.150129 -5.298086 -19.224134 194 168 135
1.516835 5.864451 -12.448297 201 189 167
5.023136 -0.116493 -15.771554 178 159 129
3.999440 4.720617 -5.181685 185 200 207
5.112311 -0.488104 -16.003698 226 207 177
5.337388 -1.837019 -16.920645 197 178 146
-4.278882 6.544611 -12.760149 182 166 141
5.316692 -1.517154 -16.823473 189 170 138
3.064968 3.303448 -5.776523 174 204 216
3.132816 9.243763 -10.304500 171 162 145
2.823086 3.220791 -5.557055 203 205 202
4.922142 -0.019050 -15.760455 223 199 166
1.651045 2.795603 -5.391139 131 91 66
3.277547 8.215272 -10.928658 165 160 141
0.870508 6.296153 -12.218678 203 191 167
3.083710 9.080570 -10.398865 163 158 139
0.870508 6.296153 -12.218678 203 191 167
3.255896 7.682870 -11.274861 143 137 121
0.970487 3.268580 -5.229494 222 186 177
2.958467 7.945798 -11.041973 169 166 149
-0.096402 5.870534 -12.597595 203 191 165
2.765859 9.075985 -10.461022 150 142 123
-0.548260 3.882995 -5.482449 113 92 68
2.763839 8.102433 -11.060527 189 184 165
-0.669588 2.370826 -7.514873 54 24 6
4.265927 -1.085754 -16.533350 185 166 136
3.900949 5.018064 -5.325630 186 194 196
4.290151 -1.106651 -16.624096 185 166 136
3.291570 5.536608 -12.465306 188 177 159
1.170891 4.757849 -6.015724 48 31 13
2.118811 3.381276 -7.712118 34 13 1
2.494658 8.473481 -10.832962 177 166 144
1.634853 3.333863 -8.463709 210 197 178
2.495711 8.473418 -10.841374 177 166 144
0.039273 2.181400 -7.436309 20 2 0
1.064986 5.476639 -6.426411 63 49 36
-0.864054 4.238402 -5.460783 193 165 141
1.049774 5.448997 -6.536401 160 145 127
1.611088 3.095866 -5.303892 204 187 174
1.058535 5.459154 -6.563250 160 145 127
1.270367 3.009561 -5.247471 207 170 170
2.964543 -1.311194 -16.669619 226 209 179
0.701770 5.214995 -6.240158 57 39 19
0.589144 2.068105 -7.651399 94 56 7
3.021851 -1.926313 -17.291037 222 206 174
0.196163 3.397911 -5.298030 208 190 182
1.662440 8.976850 -10.600158 204 192 166
3.394042 3.001178 -6.379326 90 83 74
1.712308 8.520073 -10.903630 171 161 136
2.689343 2.452007 -6.554716 213 183 154
0.677658 5.014514 -6.398879 12 1 0
1.235458 2.705509 -7.090539 110 57 17
3.109435 -4.407950 -18.859512 192 172 139
1.099803 2.455615 -6.339177 183 105 57
3.108952 -4.424094 -18.897280 192 172 139
0.252142 3.524379 -5.429986 76 49 44
0.623338 4.601654 -6.284686 99 66 59
-1.069676 3.176281 -5.511077 80 62 47
2.606878 -0.451125 -16.307646 225 209 179
-3.920299 4.889755 -13.694193 175 160 141
0.400000 3.640509 -5.379280 220 181 170
-6.709815 10.557508 -10.519236 140 114 87
0.437513 5.017328 -6.240630 19 9 3
-7.557952 10.783847 -10.699709 153 128 98
2.421894 -3.036064 -18.009558 199 180 148
0.277789 3.506758 -5.375936 30 25 19
3.280118 4.676751 -5.837126 194 202 204
2.313973 -4.624220 -19.196709 240 221 191
2.572398 2.438510 -7.178056 171 155 132
1.096096 7.819520 -11.360705 201 190 170
2.061505 6.599211 -12.032546 194 183 165
1.475462 -0.814647 -16.581629 225 209 183
0.396083 5.566875 -12.722195 209 194 171
1.589933 -2.399504 -17.709055 194 177 149
0.686863 2.206624 -7.532361 77 39 17
0.623792 8.382751 -11.066746 170 158 132
-0.392135 5.060684 -13.155704 199 183 156
1.155205 -0.588813 -16.541773 200 184 158
0.635747 2.180318 -7.592335 53 15 3
0.562985 6.888927 -12.019830 219 209 184
-0.770857 6.157413 -12.549394 162 148 122
-0.181003 4.053810 -5.340491 119 82 37
-7.035614 8.240531 -12.067623 154 134 107
0.859935 -3.259199 -18.567871 227 212 181
-6.513327 5.878145 -13.287121 152 137 114
-0.169174 1.977947 -7.527719 202 184 160
0.589342 -3.630993 -18.631905 230 211 179
3.842484 4.036707 -5.649498 169 171 170
0.071621 6.912599 -12.052271 174 164 139
0.279448 -3.305313 -18.495358 195 176 144
3.069094 5.916633 -5.809403 204 199 188
-0.538904 3.994100 -5.373351 46 25 1
3.260057 4.962369 -12.708597 168 155 139
-0.305745 8.429778 -11.127508 183 171 145
-0.140855 -3.585366 -18.741901 213 194 162
1.950066 2.660268 -5.845191 90 47 5
-0.143377 -4.049480 -18.962690 228 208 181
1.473125 6.272181 -12.245523 174 162 138
-0.378077 7.375941 -11.780272 169 157 131
1.549174 3.823885 -13.591603 183 167 144
-0.701011 4.003529 -5.403544 58 25 0
1.456577 5.262739 -12.769690 174 160 141
-0.671360 -1.900737 -17.607662 208 192 166
1.301068 2.684268 -7.685580 40 5 0
-0.695092 6.754696 -12.356010 172 162 137
0.212365 6.053970 -12.484686 203 191 167
-0.697569 6.875343 -12.095446 217 207 182
0.659131 2.707577 -7.156522 163 95 48
-0.741378 7.102890 -11.980216 180 169 147
-0.428036 3.792521 -5.431111 186 160 130
-0.805720 -0.199657 -16.514845 197 182 153
-0.625039 3.742683 -5.526452 113 97 81
-0.803794 -0.329274 -16.582850 225 210 179
-1.205196 2.911259 -7.315204 75 45 12
-0.863728 7.262003 -12.021336 207 197 172
-9.425758 10.575471 -10.889206 177 152 122
-0.904746 6.537347 -12.331685 167 159 139
4.857114 4.234380 -13.095579 187 170 154
-1.246212 -0.030440 -16.344341 204 192 166
-1.185987 6.333440 -12.494440 208 200 179
4.509894 4.271210 -13.054019 156 139 121
-1.132182 8.739060 -11.071797 159 145 119
4.511063 4.280648 -13.067208 156 139 121
-1.282948 7.036482 -12.053442 213 203 178
3.559014 2.512070 -6.736022 182 168 157
-1.002293 3.319709 -5.418560 78 44 32
3.518159 1.839154 -7.347287 119 107 91
-1.694821 -4.000365 -19.034277 239 221 197
3.421103 2.559849 -6.813350 203 189 173
-1.270347 9.121549 -10.867143 203 191 167
4.199501 3.892128 -13.368363 158 141 123
-1.073311 3.942787 -5.803519 43 27 5
4.074934 4.070154 -13.109159 193 177 155
-1.328337 8.992805 -10.917314 171 159 133
3.231421 2.753145 -6.808585 111 100 86
-1.422971 7.794233 -11.636292 212 200 174
3.203299 2.906515 -6.276821 47 46 41
-1.733612 0.439131 -16.210138 189 177 153
3.159704 2.636760 -6.603284 127 117 104
-1.537291 8.903087 -10.932021 197 185 161
-1.168571 3.689103 -5.466666 58 35 10
3.615450 5.113405 -12.660750 155 142 125
-1.239751 3.693538 -5.943682 145 118 88
3.017110 2.652299 -7.007129 64 55 36
-2.015309 0.356857 -16.267282 232 217 198
3.017110 2.652299 -7.007129 64 55 36
-2.145297 -2.260478 -18.139202 239 224 201
3.484843 4.389783 -13.181374 161 145 122
-1.718754 7.077984 -12.070133 179 169 144
2.963071 2.187417 -7.820653 128 108 82
-1.741245 6.859957 -12.242664 183 173 148
3.354658 5.000269 -12.720881 141 128 112
-1.361732 4.174809 -6.480974 77 58 25
3.192840 4.841464 -12.824244 172 159 139
-2.447405 -3.309524 -18.716782 239 223 198
2.306022 6.604066 -11.954440 167 155 139
-2.022790 5.634364 -13.007073 224 216 195
2.050826 5.094247 -12.851517 166 153 136
1.843816 3.849544 -13.634906 159 143 120
-2.391100 -0.310912 -16.711666 240 228 204
1.470772 4.851401 -12.990190 158 144 123
-2.377828 0.637267 -16.115038 236 228 207
1.289455 6.587325 -12.124201 188 176 152
-2.475569 -0.485817 -16.368088 211 199 175
1.048395 5.318872 -12.819861 204 189 170
-2.205112 6.090985 -12.754057 197 187 162
-3.128704 -4.910102 -20.074789 212 197 174
-2.191139 8.148967 -11.528382 181 169 143
0.469780 5.003384 -13.072618 174 158 135
-2.964337 0.530376 -16.226795 242 230 208
0.123384 6.167587 -12.446996 175 163 139
-2.450448 6.774291 -12.370822 196 184 158
0.088788 4.516510 -13.381742 156 140 115
-3.036525 3.820568 -14.188747 200 186 161
0.734449 2.322315 -7.259413 84 24 0
-3.648173 -2.358488 -18.168854 217 201 175
0.710158 2.496568 -6.834360 143 75 30
-3.249883 6.468562 -12.654281 195 183 157
-0.643691 6.385729 -12.427743 213 199 173
-4.933567 -4.604718 -19.945091 209 194 171
0.532151 2.192785 -7.539140 45 9 0
-4.933567 -4.604718 -19.945091 209 194 171
0.388524 2.511129 -7.485995 41 4 0
-3.293271 7.912886 -11.712740 217 203 177
0.361390 2.191744 -7.817712 105 70 28
-3.267866 8.899965 -11.283214 174 158 133
-1.170952 5.451658 -13.020945 167 152 129
-0.278516 3.053033 -5.974233 246 184 135
2.640126 4.826553 -6.428118 169 196 203
-2.538249 6.720796 -12.430573 212 195 167
-1.023818 3.654408 -6.553981 89 68 51
-1.007760 2.953105 -5.685148 115 84 57
0.796674 4.078210 -5.965316 244 213 195
-4.572645 6.387990 -12.827917 196 180 157
1.424762 4.786665 -6.541527 95 78 61
2.967154 5.536240 -12.471055 204 198 183
-0.555103 2.912306 -6.018933 247 181 123
-1.215421 5.650259 -12.859778 201 190 172
2.817828 4.159634 -5.782907 183 215 221
-5.384706 3.312299 -14.782852 214 198 178
2.907706 2.817510 -6.526710 23 13 12
3.036314 2.700805 -6.370951 88 79 72
2.997638 9.043286 -10.461185 150 147 130
1.864223 3.376834 -9.112280 0 0 0
0.333032 2.754073 -5.604040 135 93 68
-4.504712 3.853101 -12.820602 178 161 137
1.329259 8.855824 -10.769691 149 141 122
-0.083949 2.506446 -7.373739 26 10 5
0.407839 8.119424 -11.241594 176 165 147
-2.739372 5.152486 -12.782568 0 0 0
-0.364496 9.333043 -10.582575 207 193 167
3.320034 4.704967 -5.792287 146 157 161
3.076792 4.681141 -6.008319 111 122 124
3.978521 1.065701 -6.963212 199 200 194
4.975238 -1.739774 -17.198200 212 192 159
-9.226819 11.637704 -10.624649 194 165 131
0.323421 3.063967 -5.400362 252 218 202
0.228652 4.148648 -5.638406 235 208 189
-7.456996 9.454657 -11.280787 158 138 113
0.261393 4.506120 -5.950131 15 2 0
-0.520893 3.921525 -5.376219 57 36 18
2.839961 2.517818 -6.824031 24 14 2
-0.538351 3.936638 -5.378215 57 36 18
-8.009188 9.956286 -11.332783 199 173 148
2.821942 5.270274 -6.218421 141 151 152
4.172339 2.994815 -5.961908 189 184 178
1.567122 3.705022 -5.424581 238 210 190
0.749634 5.820611 -12.540491 201 188 168
6.746046 -1.149808 -17.282024 214 190 156
0.476396 5.796127 -12.584494 204 192 168
1.122596 2.949486 -5.260160 131 92 75
-0.023951 6.230589 -12.427220 207 192 169
4.265873 -0.717769 -16.347174 196 175 144
4.265873 -0.717769 -16.347174 196 175 144
-4.686481 4.118590 -14.158777 159 143 118
-0.334909 4.084345 -5.292396 206 174 140
-7.171288 6.861554 -12.838660 204 186 162
5.706494 0.290305 -8.664797 254 232 192
-5.980272 3.579918 -14.598680 206 188 166
1.052207 3.261725 -5.297758 234 187 170
3.939615 1.855613 -6.929400 224 214 205
4.720808 0.487005 -15.422711 220 204 176
3.858984 3.406765 -5.997895 84 69 50
4.948844 -1.954870 -17.261662 219 199 164
3.168764 -0.320889 -15.991881 228 211 183
0.993135 5.520614 -12.675764 198 186 162
3.195245 -0.371576 -16.196951 228 211 183
0.342539 2.688170 -5.844861 75 59 44
2.943118 0.096754 -15.925394 194 179 148
-4.219390 6.189125 -12.930401 204 188 162
0.184782 3.701495 -5.409422 237 208 204
-4.146092 5.215954 -13.482419 186 170 147
1.524080 8.131306 -11.168773 208 200 181
-4.818558 4.580205 -13.763639 162 146 123
1.520760 8.121944 -11.154408 208 200 181
-5.446751 5.149380 -13.565701 168 153 133
1.216125 9.614445 -10.446671 181 170 146
-7.514183 9.837130 -11.114370 161 140 111
1.860389 -1.474106 -17.080376 234 218 192
-6.518082 5.756053 -13.378601 158 142 119
1.858459 -1.465929 -17.037529 234 218 192
-7.958770 7.569231 -12.410240 207 190 162
-0.659988 0.775641 -15.858268 208 194 168
3.210356 1.950408 -7.550937 182 162 137
-1.467390 -0.948114 -16.858501 234 220 194
3.203074 1.630815 -7.826334 132 112 87
-1.578885 0.255937 -16.338791 228 220 199
3.098312 2.668824 -6.432253 128 115 99
-1.693720 0.655145 -16.102940 202 189 162
-1.686679 0.661282 -16.063601 202 189 162
2.841360 2.504506 -7.786376 144 119 89
-2.037745 -0.728388 -17.000324 212 198 172
1.923843 6.659591 -11.999147 160 149 129
