ply
format ascii 1.0
element vertex 1231
property float x
property float y
property float z
property uint8 red
property uint8 green
property uint8 blue
end_header
-0.670681 -1.009096 -7.883594 203 200 97
-0.671861 -8.293228 -6.283344 126 106 81
-1.473720 -8.300138 -6.026169 120 103 85
-1.473720 -8.300138 -6.026169 120 103 85
-2.460066 -4.943561 -8.147530 21 20 4
-3.032968 -8.059484 -8.020942 40 32 11
-3.529763 -6.232836 -8.648451 183 178 173
-3.529763 -6.232836 -8.648451 183 178 173
-3.689595 -4.291024 -8.840354 122 123 95
-3.957510 -6.682573 -8.334420 23 30 23
-4.340698 -2.412710 -9.000839 211 218 147
-3.786704 -4.980520 -7.339459 158 146 104
2.199149 0.558083 -3.512607 172 143 109
2.646048 -2.774340 -1.764970 99 126 33
0.039460 -0.327867 -7.699306 22 41 0
0.913544 -6.344390 -4.664010 60 70 5
-0.072982 -0.127461 -7.499038 19 40 0
-0.072982 -0.127461 -7.499038 19 40 0
-0.037829 -5.646799 -7.148997 44 47 17
-0.560091 -7.553302 -9.263895 114 91 63
-0.549448 -8.141335 -6.308180 67 49 27
-1.730331 -2.001597 -9.902013 5 19 0
-0.672936 -8.485242 -6.245552 110 94 68
-0.672821 -8.481301 -6.242359 110 94 68
-1.765919 -2.104050 -9.487898 16 30 4
-1.593353 -7.992733 -8.823547 98 74 50
-0.785138 -8.183903 -6.266694 69 56 39
-0.805069 -8.290860 -6.233541 105 84 63
-0.991452 -7.840897 -6.294360 52 35 15
-1.068732 -8.425030 -6.144892 61 44 28
-1.099641 -8.085303 -6.181569 117 100 82
-3.040248 -3.350427 -9.207616 30 45 2
-3.511177 -8.146502 -8.059497 89 63 40
-3.558939 -7.727308 -8.151785 134 97 68
-3.366990 -5.109962 -7.768064 40 38 3
-3.781152 -8.133527 -8.105556 140 118 90
-3.794271 -7.506142 -8.198967 168 127 96
-3.899996 -4.409611 -8.660201 28 39 9
-3.583022 -4.447875 -7.866919 170 171 125
-3.860054 -0.837140 -9.032073 32 51 8
-3.418294 -5.162250 -7.325227 33 31 5
3.113247 0.748036 -0.830478 80 67 51
3.017630 0.783342 -1.101572 99 83 67
3.203848 -0.924235 -0.457296 67 55 41
2.913446 -0.226571 -0.932241 161 142 127
2.632873 1.414388 -2.267307 79 64 41
2.631608 1.414859 -2.266833 79 64 41
2.241898 1.597588 -3.165446 82 89 22
2.223066 1.710282 -3.268724 61 73 4
2.195176 0.268863 -3.457906 184 157 114
1.251526 -5.570087 -4.869673 121 146 52
1.243055 -5.933390 -4.512327 22 39 0
0.685136 -6.378358 -4.906993 37 58 0
-0.340086 -4.360168 -8.738320 11 22 1
1.415927 0.495318 -0.450828 131 111 85
-0.752682 -3.250107 -9.608898 159 184 107
1.373329 0.515721 -0.474328 110 101 72
0.262627 -6.606298 -5.574953 174 195 115
-0.411608 -6.622899 -6.323183 76 75 38
-1.342588 -6.694762 -9.312788 62 63 58
-1.415505 -6.633870 -9.338866 21 22 17
-1.710635 -1.123643 -9.979836 6 19 0
-1.090592 1.479170 -7.502974 38 64 5
-1.698481 -1.483897 -9.261804 6 16 2
-0.814339 -8.492281 -6.190723 120 104 81
-2.037072 -0.538718 -9.751712 68 97 52
-2.082627 -1.232638 -9.652825 26 42 12
-1.136011 -7.608096 -6.470137 121 113 81
-1.185454 -7.827548 -6.128776 78 65 49
-1.239074 -8.041706 -6.107706 121 102 87
-2.299891 -2.397909 -9.361490 12 36 0
-2.251621 -7.885108 -8.633986 117 87 59
-1.939678 -7.579692 -6.213863 130 127 84
-3.230526 -7.634026 -8.468278 130 96 69
-3.160589 -7.901611 -8.276783 134 99 69
-3.385526 -2.193573 -8.954675 21 39 5
-3.350990 -8.151041 -8.077571 61 52 26
-3.601706 -7.437438 -8.295407 132 90 50
-3.601706 -7.437438 -8.295407 132 90 50
-3.620168 -6.451053 -8.452661 48 50 49
-3.653425 -7.342533 -8.280449 165 145 109
-3.688593 -2.374382 -8.901200 36 50 1
-3.692436 -8.247127 -7.949716 44 35 14
-3.827025 -6.715002 -8.423593 51 34 14
-3.810624 -0.836640 -9.104106 219 238 192
-4.005116 -4.132354 -9.003257 116 122 82
-3.964084 -6.554694 -8.467061 117 82 50
-4.318980 -1.794076 -9.095728 34 38 0
-4.508602 -4.971188 -7.762507 187 191 158
3.176674 0.798825 -0.649383 40 29 18
1.769115 1.110261 -0.588708 200 186 173
-1.302586 -1.988206 -9.157677 131 160 88
-1.563372 -0.308924 -10.019164 8 20 2
0.061936 -3.852274 -9.096888 20 28 0
-0.338970 -1.122935 -7.706345 175 184 77
-1.898280 -4.507384 -8.778214 25 23 2
1.883793 -1.414808 -1.677650 206 193 184
1.981972 1.034870 -0.649866 184 172 158
2.236377 1.484132 -0.149586 36 30 18
-0.174264 -0.953732 -7.154856 127 131 44
2.185040 0.974670 0.260347 27 20 10
2.320761 1.599362 -3.189509 76 65 33
2.145480 1.527283 -3.454763 145 130 96
3.053787 0.568615 -0.957028 24 20 8
3.152262 0.417086 -0.632220 142 121 102
2.771258 2.014082 -1.904729 59 39 15
1.644354 1.609176 -0.914535 186 170 158
1.644354 1.609176 -0.914535 186 170 158
1.322078 -0.076274 -1.657541 216 203 186
1.044203 -0.187241 -6.331467 186 189 105
-1.429236 -1.408780 -10.160395 14 42 4
3.163206 1.153350 -0.731926 103 90 73
3.272255 -0.517286 -0.350439 202 190 174
1.866389 0.480403 -0.317246 185 166 149
1.929139 1.419476 -3.964496 141 152 70
1.781841 0.370863 -0.541957 93 92 87
0.127714 -1.626011 -8.120112 162 181 93
3.192269 0.497156 -0.576506 127 110 87
3.062060 0.684851 -0.578730 78 66 50
3.096147 0.140880 -0.894563 88 60 39
2.000435 1.484593 -3.794251 83 83 33
2.001077 1.488489 -3.809279 83 83 33
1.948151 0.022518 -0.018680 206 193 184
1.381315 1.032060 -1.649393 186 178 167
1.451017 0.274417 -1.377847 221 208 191
1.373417 0.241537 -1.591505 205 193 181
-0.490769 -0.061194 -7.626834 48 54 16
-0.478098 -7.829257 -9.424752 96 82 54
-0.627231 -7.956093 -9.087615 118 97 70
2.807131 1.871656 -1.859022 91 85 62
3.122368 0.145906 -0.838968 129 107 84
2.856335 0.447009 -1.065247 93 79 68
2.824196 -0.526685 -0.861257 36 28 17
1.926851 1.578957 -0.153953 181 163 153
1.806801 0.629680 -0.409737 78 78 74
1.816095 0.544753 -0.373330 75 77 66
1.383702 0.564161 -1.856533 195 181 170
1.415495 0.356458 -1.517569 198 184 183
1.991138 -4.726739 -3.139934 192 196 122
1.012782 0.461871 -0.273816 187 150 106
-0.145578 0.452491 -7.231879 29 61 0
-1.136482 -7.727911 -6.992864 33 33 21
-1.422272 -7.608485 -6.533955 50 43 18
3.119348 1.051540 -0.816607 80 60 39
3.156237 0.401781 -0.706753 141 124 108
3.306951 -0.794431 -0.172036 207 194 179
3.046914 -0.256442 -0.968325 13 13 5
2.241082 1.555358 -3.232070 139 139 75
1.839484 -0.089675 -0.314318 218 205 196
1.636165 0.497660 -0.550028 40 28 13
1.781670 -0.237631 -0.449350 226 212 199
1.485475 0.544316 -1.304764 202 193 180
2.112008 -4.179514 -2.861229 152 166 72
0.815854 -0.764667 -6.881003 135 147 52
1.323308 -5.876022 -4.549182 17 35 0
-0.009017 -0.309902 -7.433455 116 143 64
-0.010425 -0.314063 -7.447481 116 143 64
-0.524281 -0.259781 -7.857275 21 48 0
-1.523752 -0.153434 -10.122703 70 99 38
-2.510530 -2.262160 -9.630147 5 14 0
3.419840 -0.309560 0.026172 202 173 155
3.413419 -0.364404 0.073051 191 173 149
3.157665 0.460292 -0.626442 136 119 99
3.180234 0.361977 -0.599620 65 44 25
3.052227 0.928775 -0.996716 62 45 29
3.305089 -0.426874 -0.202064 204 196 177
3.062111 0.825434 -0.971231 78 60 40
3.140450 0.361376 -0.763763 108 91 75
3.275518 -0.738272 -0.284154 193 184 169
3.136638 -0.140353 -0.735897 142 119 87
2.949761 0.764858 -1.263895 39 31 18
3.134585 -0.205562 -0.698589 162 132 103
2.878780 0.858357 -1.464476 23 16 6
2.746460 0.722377 -1.473741 120 105 90
2.624556 1.570118 -2.340049 82 72 49
2.005991 1.406841 0.067231 185 162 150
2.591055 1.154668 -2.372057 121 108 79
2.790107 -0.531911 -0.848443 188 181 172
2.263290 1.676197 -3.228778 39 44 4
1.940573 1.501445 -3.847723 149 154 79
1.905348 1.436808 -3.970473 162 174 93
1.783621 1.450534 -4.365236 121 126 44
1.769421 -0.195778 -0.503320 248 240 232
1.708254 -0.223253 -0.664664 220 211 202
0.894383 0.957975 -6.751107 109 118 27
1.214269 0.310235 -0.523050 59 34 6
0.346103 -0.607375 -7.474137 41 58 2
0.061949 -4.030310 -8.965521 44 47 0
-0.551576 -2.561033 -9.673097 24 48 1
0.545768 -6.396407 -4.937600 44 69 5
-0.804092 -5.391037 -8.754089 130 135 103
-0.163604 -6.825819 -5.929639 157 169 95
-0.375953 -7.136220 -6.246421 160 169 112
-0.996460 -8.079717 -8.639576 66 66 35
-1.211012 -7.639287 -9.021984 106 79 52
-1.213415 -7.635682 -9.021350 106 79 52
-1.650606 -1.895432 -9.845791 66 76 50
-1.263397 -8.190876 -8.907872 91 78 52
-1.473753 -7.627027 -8.951237 127 85 63
-1.455570 -8.024875 -8.864966 82 60 37
-1.615321 -6.665913 -9.271912 15 16 11
-1.038827 -7.525600 -6.425770 108 99 66
-1.400206 -8.027317 -7.748696 39 32 6
-0.531871 -1.079516 -7.766963 149 156 54
3.009443 1.147964 -1.137196 78 62 46
-2.216998 -0.840403 -9.624350 108 138 52
-2.496576 -0.482687 -9.539846 13 32 4
2.808028 1.140690 -1.564308 56 46 34
0.968298 -4.703139 -5.646375 153 166 65
0.482846 0.421654 -7.162443 19 28 0
-0.124415 -0.852918 -7.206644 122 136 24
-1.151067 -3.875576 -9.790286 31 40 13
-2.210975 -3.890413 -9.989775 94 68 35
-2.184762 -3.843839 -9.900456 94 68 35
3.299015 0.068470 -0.470579 200 179 160
-2.372921 -2.074368 -14.977280 157 174 87
3.288325 -0.255548 -0.384807 198 179 164
-1.532107 -1.747280 -9.557565 24 44 24
3.146271 0.895148 -0.725862 105 87 73
-0.987996 -7.662285 -6.463710 85 73 47
0.074000 0.079535 -7.165067 151 165 79
-0.005611 -1.394133 -7.673273 113 124 8
-1.574260 -4.097307 -9.222002 34 29 19
3.077569 -0.563114 -0.792994 88 67 48
2.691131 0.564947 -1.577285 7 8 10
1.133790 -5.447005 -5.111324 141 155 41
-0.137551 -2.266132 -9.059732 102 121 34
0.517239 -6.101718 -5.676450 63 72 21
-0.744182 -2.597876 -9.778191 92 120 43
-0.924664 -1.342906 -8.425367 145 157 47
-1.420160 -0.501634 -9.510246 5 9 1
-2.583718 -3.154356 -9.376325 32 19 3
-2.638720 -2.209579 -8.875623 21 49 0
2.831800 1.661125 -1.705405 56 45 26
2.789391 0.670791 -1.747233 74 57 41
2.723357 0.733638 -2.058465 104 91 72
1.864419 1.380274 -4.116889 116 117 44
1.864419 1.380274 -4.116889 116 117 44
1.227411 0.939397 -5.790168 176 190 95
0.383701 0.071074 -7.141594 148 167 88
0.455517 -1.262488 -7.710465 127 142 49
-1.572038 -4.146808 -8.869201 72 80 33
-1.640753 -1.274958 -10.114343 7 13 0
-0.420532 -7.008332 -5.918258 167 167 105
-1.574990 -3.957256 -9.758455 61 56 26
-1.537201 -4.823762 -8.618864 23 34 4
-1.997405 -1.560156 -9.494951 101 125 32
-1.822736 -5.902001 -8.979801 28 26 20
-1.837257 -5.926011 -9.012277 28 26 20
-1.550423 -8.085114 -8.171300 65 59 25
-2.290121 -1.943554 -9.557507 12 25 9
-1.478348 -7.638087 -6.396801 104 98 64
-2.342980 -5.559381 -8.802824 128 105 73
3.521742 -0.037122 -1.347057 58 40 18
3.069146 0.698032 -0.965528 81 66 53
2.767869 1.516276 -1.905258 103 90 68
2.877802 0.835628 -1.431939 22 15 5
2.012189 1.383376 0.088489 183 170 153
2.412030 1.375365 -2.895768 111 98 72
2.990740 -1.902691 -1.037158 176 143 109
1.389457 -5.845636 -4.601611 127 142 52
-0.740670 -2.970874 -9.696556 35 50 0
-0.689242 -7.871176 -9.213039 97 83 54
-0.433974 -6.722208 -6.129250 73 71 32
-1.541387 -1.734822 -9.607032 15 38 14
-1.362874 -8.128068 -8.330856 60 53 27
-1.596475 -8.006811 -8.833682 89 70 43
-1.992858 -7.806516 -8.767696 99 75 47
-1.309059 -7.615912 -6.431845 92 86 52
-1.760435 -7.661552 -6.451874 76 73 38
-2.867007 -3.994463 -9.535869 97 70 43
-2.822410 -1.461170 -9.418823 9 26 0
-1.903183 -7.632549 -6.375080 76 73 39
3.021889 1.609088 -1.148790 36 27 10
3.389604 -0.338193 -0.005903 45 31 15
3.389604 -0.338193 -0.005903 45 31 15
3.044142 1.123350 -1.044701 57 39 27
3.184391 0.356801 -0.606304 72 46 24
2.874902 1.630098 -1.586158 50 39 17
2.850844 1.078211 -1.564043 17 17 7
3.109263 -0.224836 -0.805578 162 140 119
2.798653 0.338498 -1.271253 134 120 109
2.646184 0.659711 -1.445248 104 92 77
2.220256 0.591103 0.364784 220 207 188
2.364198 1.595582 -2.991134 121 111 60
2.140882 0.386383 0.533863 195 180 158
1.875317 1.220443 -0.368619 225 207 183
1.547275 0.702840 -1.198879 116 117 111
1.474146 0.657368 -1.375855 198 185 175
1.948719 -4.548630 -3.319200 208 212 133
1.143085 -5.514546 -5.048431 106 124 24
-0.483215 -2.655058 -9.598475 83 98 46
-0.513244 -2.459415 -9.433642 27 45 0
-0.372327 -0.477793 -7.671898 98 109 51
-0.328976 -0.787227 -7.550056 167 167 98
-0.430855 -0.486661 -7.665636 28 36 9
0.152041 -6.190516 -6.324951 56 77 4
-0.463666 -8.088067 -9.203130 105 105 61
-0.465776 -8.108844 -9.227796 105 105 61
-0.709860 -7.678903 -9.226074 104 74 46
-0.784985 -4.392103 -8.694683 12 19 0
-0.827950 -8.213689 -9.147487 71 56 29
-1.238337 -3.890296 -9.899269 23 22 1
-0.957316 -7.609104 -9.076930 119 84 57
-0.357449 -8.130539 -6.558869 43 35 9
-1.168421 -8.022839 -9.022421 122 98 74
-1.590307 -1.559608 -9.690073 1 15 0
-1.212211 -7.830749 -9.036631 109 79 55
-1.606091 -1.674260 -9.421305 7 14 0
-1.792889 -1.110748 -10.015517 63 76 45
-1.679628 -2.335427 -9.634051 35 53 2
-1.472963 -7.626924 -8.945494 126 91 61
-0.825691 -7.639569 -6.349449 59 42 20
-1.991339 -2.608200 -9.947556 88 87 57
-1.748671 -7.491738 -8.913170 122 89 58
-0.977837 -7.602289 -6.273884 76 59 37
-2.016351 -2.334785 -9.488517 6 14 0
-2.056477 -2.390309 -9.636906 6 14 0
-2.093225 -1.715659 -9.699767 8 21 0
-2.178958 -0.628346 -9.607967 4 30 0
-2.160952 -1.954828 -9.283194 91 107 71
-2.000659 -8.103448 -8.718691 90 71 41
-2.000197 -8.100695 -8.716763 90 71 41
-1.289607 -7.625003 -6.235001 127 111 87
-1.318666 -7.593448 -6.301931 86 77 48
-2.381291 -0.320569 -9.590011 164 193 113
-2.241154 -7.618855 -8.838575 168 128 103
-2.509666 -0.232824 -9.647738 4 16 0
-2.369957 -2.336460 -9.093763 101 123 79
-2.588056 -7.895815 -8.738810 109 74 46
-2.666111 -2.823850 -9.174065 15 18 3
-2.760247 -0.288916 -9.466067 7 24 0
-2.662745 -7.859826 -8.568269 108 80 50
-2.757909 -7.381603 -8.584573 138 113 91
1.733826 -0.563423 -1.092296 213 195 178
2.736498 1.166862 -0.757167 65 54 36
0.172350 -2.656514 -8.436095 180 188 110
1.374752 1.397083 -5.575090 165 172 83
2.592625 2.156396 -2.484809 84 80 57
1.882005 1.290604 -0.274399 204 178 143
0.038660 -2.914683 -9.205046 102 85 32
3.169752 0.671379 -0.341522 145 126 101
0.469619 0.974347 -7.192740 54 77 23
1.371083 -0.250397 -5.368690 105 112 42
-0.216533 0.037666 -7.435102 125 134 86
0.480396 -4.125527 -7.252887 154 167 77
3.029690 1.662682 -1.131649 68 56 39
0.380907 -3.799917 -7.938276 126 134 55
1.879706 0.649546 -0.242184 181 155 128
-0.111293 1.183859 -7.359367 106 126 53
1.694300 1.647881 -0.900111 151 129 108
1.792464 0.340217 -0.790943 53 48 39
2.026377 1.246104 0.103737 150 124 114
1.573955 1.071732 -1.123630 164 148 139
1.476581 0.083661 -0.708544 213 215 213
2.095565 0.981121 0.333139 154 141 133
0.193449 -4.328892 -7.302891 152 171 64
3.434651 -0.290110 0.117906 203 183 158
1.917593 -0.284701 -0.052432 204 187 171
1.837988 0.361526 -0.426937 101 106 99
1.915830 -3.427842 -3.580775 162 177 86
0.069779 1.391733 -6.915153 69 75 41
0.794981 -4.874177 -5.910365 63 79 15
0.609051 -5.573104 -5.813989 53 64 28
3.466754 -0.388183 0.196940 203 191 175
3.087493 0.778796 -0.900362 48 32 17
1.728810 1.134619 -0.669023 187 166 149
0.490549 -0.057749 -7.166368 139 156 62
-0.036692 -3.511660 -9.023900 14 34 5
3.498022 -0.550708 0.299887 99 69 47
2.691444 2.216074 -2.242607 118 99 69
1.827147 1.709785 -0.538385 156 128 104
1.827246 0.250013 -0.211992 204 186 168
1.752728 0.884529 -0.654391 190 172 157
2.028188 0.114068 -0.861576 173 176 169
1.696960 0.465947 -0.837525 186 192 190
1.436730 0.366949 -1.392851 206 193 176
1.436730 0.366949 -1.392851 206 193 176
1.114661 0.263348 -0.467349 86 59 29
1.942022 -3.106102 -3.598079 167 177 88
1.887636 -3.728148 -3.748042 192 196 111
0.161244 0.521497 -6.997383 8 19 5
0.728117 -5.155924 -5.498936 185 196 88
-0.047297 -2.499869 -9.279223 93 95 36
3.431516 -0.082064 0.070238 218 189 163
3.453531 -0.509948 0.198469 204 191 174
2.272500 2.185497 -3.248865 65 64 15
1.820490 -0.047759 -0.369871 210 193 177
1.585713 0.868295 -1.031537 179 165 154
1.590390 0.865302 -1.044056 179 165 154
1.531456 0.791477 -1.221575 187 178 171
1.497524 0.748882 -1.333082 200 181 159
1.478507 0.540290 -1.337488 203 188 169
1.756266 1.316643 -4.419788 171 178 83
1.076431 0.497611 -0.249008 231 192 136
2.016106 -3.269933 -3.339827 188 197 108
1.865415 -4.089667 -3.687102 139 153 56
1.715223 -4.199474 -4.008499 187 198 102
0.996595 -1.696279 -6.550041 176 182 84
1.229005 -4.068359 -5.360219 169 174 84
1.229005 -4.068359 -5.360219 169 174 84
0.318755 -3.494901 -8.038947 152 157 90
0.002117 -4.792514 -8.698727 45 78 7
3.457487 -0.277663 0.121086 208 190 166
3.451844 -0.272179 0.127527 208 190 166
3.445201 -0.462775 0.163944 215 197 177
2.065941 1.254785 0.215035 38 22 13
2.048234 1.245014 0.213166 136 121 106
1.880732 1.708144 -3.976353 157 166 82
1.227891 0.298631 -0.491191 192 166 151
1.217607 0.870072 -5.827260 159 166 60
1.620698 -2.172020 -4.513182 179 189 100
1.345817 -0.618104 -5.445042 198 202 107
0.992171 -0.820369 -6.205863 175 189 96
1.311179 -3.296910 -5.360925 193 198 113
1.289732 -4.181345 -5.179571 199 204 122
0.279565 0.992799 -7.519707 19 24 4
1.254682 -5.300915 -4.960452 121 128 25
0.210990 0.708439 -7.425251 6 29 0
0.379615 -1.027930 -7.609693 54 74 12
1.015518 -5.540291 -5.093435 45 57 1
0.493535 -4.855071 -6.650087 108 122 11
0.597576 -6.124716 -5.834005 169 169 95
0.491693 -6.090326 -5.619208 28 38 0
-0.237789 -3.714878 -8.938232 133 159 70
3.340889 0.605092 -0.173220 86 59 32
3.466853 -0.473743 0.208457 64 40 14
3.353868 -0.004909 -0.160995 217 196 175
3.139971 1.049413 -0.787335 72 56 33
3.228055 0.534056 -0.661777 146 119 98
3.037367 1.345592 -1.089940 93 81 67
3.083586 0.859666 -0.905718 58 39 19
3.054534 0.926634 -1.000300 57 42 25
3.174800 -0.084872 -0.663950 173 146 117
2.133127 0.863318 0.431259 46 35 15
2.849730 2.074968 -1.702460 103 88 65
2.679644 2.055812 -2.060263 97 84 52
3.037427 -1.665144 -0.850402 201 180 149
3.012012 -1.736301 -1.006330 206 182 152
3.013914 -1.882954 -0.980387 173 143 111
1.706734 1.685062 -0.823059 137 120 100
1.847007 0.500112 -0.344667 135 127 104
1.394910 0.508432 -0.447549 150 127 96
1.852114 -3.850965 -3.719409 176 195 83
1.852114 -3.850965 -3.719409 176 195 83
1.266204 -1.303756 -5.533456 159 162 71
0.653283 1.066299 -7.081964 118 139 83
1.366844 -5.471657 -4.760832 164 174 77
1.005542 -3.889597 -6.014372 143 160 56
0.504103 -0.774328 -7.390384 56 70 21
0.215657 0.626519 -7.363070 28 40 3
1.112697 -5.224989 -5.259713 80 82 17
1.117758 -5.614388 -4.951409 98 122 45
0.052196 0.992783 -7.172081 48 62 11
0.833770 -4.484226 -6.173851 105 113 47
0.934011 -5.592916 -5.379700 67 68 1
0.776031 -4.935008 -5.767650 78 97 5
0.881409 -5.861818 -5.179192 41 42 1
0.659165 -4.925041 -5.923161 181 204 62
0.632114 -5.104710 -5.937324 108 127 2
-0.185940 -0.345113 -7.284904 14 35 0
0.547111 -6.112913 -5.444833 35 51 2
0.015501 -4.792819 -9.082181 50 59 4
2.120246 0.696440 0.383395 169 152 136
1.742087 1.129069 -0.700895 190 171 155
1.897206 0.149494 -0.827444 110 109 105
3.169489 -0.751608 -0.443158 209 191 171
1.832597 1.605341 -0.469527 163 143 126
0.181738 1.171027 -7.029304 21 25 1
1.730967 -0.401899 -0.645039 209 192 176
0.545965 0.529006 -7.193277 17 30 3
0.540365 1.384806 -7.046330 11 14 7
-0.008432 0.195788 -7.086609 133 160 94
-0.338814 0.088638 -7.283758 160 194 123
2.134682 0.964705 -1.160031 192 170 147
2.893844 0.765805 -0.440768 49 38 25
1.690432 0.643470 -0.906037 194 193 191
3.025880 0.303973 -0.478932 116 84 56
3.410500 -0.173046 -0.128586 194 175 158
2.996839 -0.380788 -0.394570 201 184 168
3.255514 0.984390 -0.438473 115 99 76
1.851089 1.289379 -0.295525 203 177 142
-0.067624 1.094805 -7.313489 86 102 31
0.562256 -5.020394 -6.173077 139 160 32
2.804852 1.408208 -1.652984 30 31 17
1.976151 0.472293 0.120066 179 160 145
1.043204 -0.228779 -6.458900 182 182 96
1.432610 -4.903707 -4.536193 174 175 105
0.505326 -6.228298 -5.758532 31 45 0
1.899948 -0.737935 -0.164019 204 190 177
1.120194 0.381501 -0.397162 214 189 141
1.272860 0.358951 -1.922360 202 186 170
1.272860 0.358951 -1.922360 202 186 170
0.773294 -3.336178 -6.863930 193 191 115
3.148612 0.785137 -0.313303 112 94 74
2.991932 -1.627203 -1.004127 202 194 173
1.921402 0.424437 -0.120264 198 174 147
1.844491 0.703621 -0.296770 193 167 148
1.949665 -0.595275 0.013728 204 190 177
1.437278 -0.462954 -1.388284 216 203 187
2.096564 -2.925788 -3.057200 81 104 19
1.379113 -0.572877 -5.392702 197 191 102
1.264893 -1.364621 -5.429170 178 186 102
0.972917 -5.520036 -5.148258 53 49 24
0.788215 -4.828388 -5.870279 47 63 3
-0.029180 -3.527211 -9.071509 25 31 6
1.397994 0.627431 -1.578384 198 179 162
1.412215 0.360298 -1.518813 202 188 175
1.196725 0.229930 -0.606482 87 59 37
1.145234 -1.186846 -5.923692 177 187 91
1.469760 -3.409613 -4.936370 143 155 53
0.037160 0.649948 -7.325363 11 25 2
0.805956 -5.821400 -5.344864 160 148 108
0.818376 -6.083848 -4.917447 32 61 1
0.506093 -6.131661 -5.745891 57 66 27
-0.749945 -2.926373 -9.552009 28 45 1
1.859599 0.115057 -0.339328 192 180 165
1.694211 1.029083 -0.815675 188 175 158
1.839022 0.035495 -0.333800 214 196 176
1.839678 -0.088707 -0.311490 207 189 175
1.725004 -0.394384 -0.622208 215 198 182
1.803451 1.712493 -4.335846 151 161 74
1.795576 1.711901 -4.292249 151 161 74
2.330562 -3.123959 -2.385496 105 124 30
2.330562 -3.123959 -2.385496 105 124 30
0.920983 0.443209 -0.255213 50 19 15
1.790856 -3.977032 -3.850165 155 167 77
0.975046 0.473548 -6.284800 170 175 92
1.617508 -4.413790 -4.208500 187 193 107
0.767390 0.861327 -6.868914 130 145 54
0.542318 -0.094805 -7.231987 119 136 36
1.271236 -5.667158 -4.700808 98 119 28
0.877920 -4.878469 -5.751003 66 75 9
0.220676 -3.541083 -8.253448 167 165 108
0.130995 -4.726364 -7.449465 153 170 43
0.000711 -4.819870 -8.737559 39 66 0
0.153143 -6.291517 -5.813635 149 173 90
-0.274558 -5.459420 -8.651783 141 176 70
3.254403 1.245538 -0.399919 105 99 75
3.045494 2.471629 -1.180760 84 72 46
3.171873 0.743642 -0.596722 22 18 7
2.958478 2.087452 -1.351231 85 73 49
2.949380 2.043595 -1.411325 91 77 51
2.986097 1.394918 -1.243753 81 68 51
1.878634 -0.934485 0.096388 0 0 0
2.401299 1.082799 -0.317525 141 124 114
2.710578 2.645195 -2.103197 140 122 79
1.851466 -0.054443 -0.497799 201 184 166
1.531767 0.978359 -0.545564 185 177 167
1.786355 -0.079280 -0.459279 203 185 171
1.709072 -0.224290 -0.665793 200 188 176
1.678426 -0.234019 -0.763293 207 192 173
1.493516 0.624273 -1.332864 205 193 181
1.494258 0.623648 -1.336074 205 193 181
2.483273 -2.698520 -2.264815 100 99 34
1.012378 0.467756 -0.260251 230 202 152
1.967008 -2.851931 -3.507423 127 144 46
1.210863 1.513196 -6.112283 133 138 56
1.831742 -2.694089 -3.940439 180 194 102
0.833704 0.326466 -6.956076 128 134 45
1.278699 -3.921955 -5.215068 183 191 108
1.188538 -3.984860 -5.486150 191 194 107
1.231340 -4.422230 -5.226994 178 182 96
0.600234 -1.283208 -7.512152 132 144 46
1.141644 -5.518428 -5.055433 96 111 19
1.184927 -5.888929 -4.536022 17 43 0
-0.023718 0.525346 -7.498308 77 97 53
0.039862 -0.461198 -7.807722 27 47 2
0.884530 -5.930589 -5.113328 109 136 51
0.489389 -4.995759 -6.105777 180 194 75
0.491045 -6.165624 -5.698535 27 41 0
-0.479128 -0.754680 -7.657611 140 154 62
0.269562 -6.561776 -5.539226 128 155 74
-0.351052 -7.237961 -9.470908 102 78 54
-0.677797 -5.430419 -8.849160 32 48 1
-1.203216 -0.189534 -8.899955 9 25 0
3.189068 1.631851 -0.656543 99 88 69
3.069792 2.368781 -1.087766 81 69 45
3.153551 1.103274 -0.737531 65 47 25
2.937342 2.660338 -1.486296 137 123 96
2.925705 2.363783 -1.509359 109 99 74
2.921857 2.209798 -1.467421 112 98 67
3.024497 1.150807 -1.081841 56 43 26
2.615037 1.005249 -0.635763 33 18 1
2.684526 2.407350 -2.182220 88 59 25
2.633828 2.085695 -2.321166 98 84 57
1.520660 1.323968 -1.314443 167 154 138
1.732311 -0.175978 -0.585583 213 201 189
1.728167 -0.169513 -0.574489 213 201 189
1.929465 1.883968 -3.805062 106 113 29
1.864477 2.344433 -4.166686 144 152 77
1.497558 0.375765 -0.878400 98 78 51
1.676647 -0.591110 -0.730454 212 196 181
2.009623 -2.821519 -3.457242 172 184 88
1.917887 -3.743702 -3.462518 181 192 108
1.052610 1.533070 -6.422215 146 157 61
0.769936 -0.688261 -7.071537 178 181 90
1.333211 -5.085931 -4.939660 174 178 87
0.156206 0.177471 -7.357104 17 27 0
0.455632 -1.998680 -7.818779 189 190 107
0.909005 -4.757753 -5.693853 152 169 65
0.812181 -4.567416 -6.143581 186 180 144
1.057846 -5.969385 -4.564421 38 63 0
0.495950 -3.703337 -7.621938 177 187 108
0.303410 -2.788325 -8.360344 184 182 107
0.016511 -2.225543 -9.068888 55 84 17
0.641354 -5.984688 -5.220280 138 156 91
0.372165 -4.858824 -6.558749 105 124 9
0.414365 -5.822587 -5.998466 163 184 70
-0.031843 -4.275804 -8.816808 162 186 98
0.454374 -6.266420 -5.670321 35 53 0
-0.111952 -4.309546 -8.886259 18 42 0
-0.884404 -2.981496 -9.680552 36 62 0
0.001714 -6.088329 -6.957767 40 47 15
-0.918771 -4.135261 -8.720990 21 26 1
1.487113 -0.498937 -1.280656 190 170 147
-0.536598 -0.101419 -7.808315 25 44 4
-1.016627 -2.363744 -9.607778 30 44 0
0.018286 0.915429 -7.127297 77 93 52
0.539224 -4.394166 -7.187125 183 183 116
-0.421131 -1.174057 -7.843296 64 71 4
-1.529917 -1.579586 -9.303014 111 131 85
-1.247251 -2.972548 -9.985414 74 72 33
-1.199139 -3.866237 -9.282146 52 56 23
-0.263555 -6.563251 -6.040175 135 154 73
3.417232 -0.556411 0.073067 202 190 176
0.968107 -5.961124 -4.904019 116 144 59
3.087841 0.778458 -0.905576 46 30 14
1.263434 -4.312749 -5.262818 167 175 92
-0.330864 -7.075669 -5.989070 150 160 105
1.463419 1.621721 -5.184160 168 176 93
1.871408 -3.908294 -3.554091 152 169 75
0.637049 0.803398 -7.031995 128 150 78
0.959268 -5.509008 -5.133178 55 53 20
-0.211127 0.901925 -7.088673 23 42 11
-0.716065 -0.986968 -7.960350 174 181 49
-1.059873 0.086977 -8.752891 32 52 25
0.050531 -6.550593 -5.890911 63 74 14
3.155702 0.012074 -0.697048 156 133 109
2.498434 2.121121 -2.567142 65 44 17
2.517309 1.965992 -2.636186 70 54 20
1.910675 0.499574 -0.765371 87 88 83
1.849497 0.113854 -0.355085 200 196 184
1.612984 1.119177 -1.059990 179 164 157
1.480595 0.962143 -1.361894 194 179 171
1.790321 -3.299676 -3.950173 197 205 122
1.462982 -3.368867 -4.872950 151 161 64
0.557848 0.153192 -7.194829 16 27 0
0.882079 -4.829580 -5.614230 77 96 27
-0.043869 -2.504841 -9.291130 92 97 31
-1.099393 -1.831948 -9.293735 27 48 4
-1.894872 0.292688 -9.624605 2 9 4
3.046250 0.690463 -0.984005 41 31 19
3.138113 -1.604626 -0.644361 178 166 142
1.863267 1.940104 -4.122320 102 113 32
1.505173 0.717815 -1.251936 183 175 164
1.453607 0.466299 -1.352651 201 189 177
2.320469 -3.154420 -2.519906 171 189 97
1.871302 -3.196136 -3.764084 155 167 73
1.863583 -3.166942 -3.723490 155 167 73
0.454213 1.092320 -7.292290 23 41 5
0.156654 1.306478 -7.048936 124 130 117
1.054421 -5.681592 -4.962068 47 64 10
1.129780 -5.852304 -4.579263 37 55 16
-0.102588 -0.711015 -7.377354 36 41 18
0.775854 -5.918678 -5.325065 68 81 33
0.535932 -5.448817 -5.850649 181 203 79
0.586805 -6.336140 -4.965180 32 52 15
-1.419861 -3.517122 -10.091696 146 117 77
2.798848 1.787338 -1.900253 92 80 56
3.135045 -1.441536 -0.647304 207 199 180
3.090701 -1.308652 -0.765678 191 182 165
1.531456 0.791477 -1.221575 189 178 172
2.473793 -2.899339 -2.067671 173 177 95
2.451502 -3.164261 -2.158012 178 191 103
1.513101 1.421554 -4.901694 150 161 69
1.415954 0.429076 -5.327504 178 181 90
1.308041 0.908271 -5.628580 123 132 40
1.051930 1.533542 -6.410249 152 155 66
1.045124 1.453034 -6.453697 166 176 80
1.344114 -5.612050 -4.719385 99 109 22
0.982644 -3.939142 -5.943973 176 192 93
1.061014 -4.659301 -5.627460 147 151 67
1.192656 -5.331409 -5.032304 150 159 54
0.143052 0.720043 -7.306049 135 164 100
1.093308 -5.496375 -5.116605 154 170 67
0.998587 -5.312416 -5.494361 41 43 1
0.902192 -5.799252 -5.229288 189 167 128
0.840201 -6.064494 -4.896245 48 75 7
-0.118967 -0.908672 -7.274068 153 157 44
0.040448 -4.023025 -8.944615 40 55 2
0.237234 -5.310678 -6.713572 163 188 68
-0.328093 -5.287075 -8.773451 26 32 5
0.060807 -6.138546 -6.303622 166 195 116
-0.585129 -7.650135 -9.368134 104 70 43
-0.816585 -8.022122 -9.100480 77 55 31
-0.816231 -8.019396 -9.096560 77 55 31
-1.816903 -1.225717 -10.092683 2 16 0
3.346556 -0.312858 0.087932 186 172 146
3.137719 1.193159 -0.761677 72 55 37
3.076263 1.460037 -0.985230 66 59 43
2.993474 1.986779 -1.258080 96 85 67
3.165254 0.742012 -0.686584 55 50 38
2.985739 1.739206 -1.274601 94 85 68
3.101070 0.752719 -0.861489 52 40 26
2.713230 1.762668 -2.056848 87 77 50
2.011379 1.159220 0.117338 201 180 160
2.645841 1.961980 -2.302102 82 71 51
1.985927 0.850510 0.056870 212 193 172
2.445920 1.940771 -2.678801 90 88 62
1.769260 0.531213 -0.494660 0 0 0
1.743765 0.442755 -0.586627 76 74 61
1.525421 1.265632 -1.289935 175 160 147
1.551768 1.487331 -5.093718 99 109 23
1.647720 -0.747105 -1.142523 217 204 189
1.010087 1.390361 -6.578214 139 144 51
1.873261 -4.077331 -3.640119 146 160 64
1.819204 -4.363919 -3.678979 196 197 119
1.763321 -4.131347 -3.927074 152 162 66
0.653842 1.067326 -7.086658 122 144 75
1.614083 -4.732089 -4.283554 191 203 117
1.479704 -5.647137 -4.540058 160 176 74
1.189180 -4.534481 -5.304614 125 134 41
0.289950 0.579874 -7.287555 14 33 0
0.251618 0.284941 -7.039450 77 78 25
0.163125 -0.964719 -7.509920 47 57 6
0.018624 -2.161834 -8.872766 65 94 13
0.698258 -5.393816 -5.575316 162 162 87
-0.038563 -4.386796 -8.838634 17 37 4
0.437487 -5.680701 -6.028787 181 192 92
-0.120588 -4.639860 -8.933270 12 26 0
-0.441959 -2.854355 -9.662550 108 122 34
0.229507 -6.026686 -6.115596 147 167 81
-0.473032 -5.339550 -8.786306 38 59 19
-0.466541 -6.181519 -8.950309 113 128 95
-1.119189 -3.986596 -9.967986 21 23 3
-0.145641 -7.286864 -5.987010 41 34 9
-1.052543 -4.129879 -8.633522 143 148 113
-0.312120 -7.244567 -6.051251 158 154 105
-0.944912 -8.061253 -9.049611 77 55 34
-1.526958 -4.048778 -9.865991 26 30 3
-1.699890 -3.150149 -10.100176 134 117 73
-0.432379 -6.119370 -6.327317 79 72 43
-0.482471 -1.021351 -7.731431 72 71 11
-2.627118 0.596628 -9.804914 18 39 1
3.023249 1.304584 -1.121259 58 45 25
2.693334 1.294761 -1.608882 117 106 86
-2.802998 1.165781 -9.989049 8 33 0
1.699646 0.785285 -0.708444 127 134 126
0.307132 -5.388208 -6.684838 153 171 53
-0.058424 2.604321 -6.618253 45 43 4
-1.603445 -7.572480 -8.844416 122 108 71
3.247947 -0.072948 -0.533038 197 178 163
3.102133 -0.095252 -0.892937 0 0 0
2.686389 1.088430 -1.540068 90 79 61
2.130746 -0.568339 -0.528054 28 18 9
-1.615153 1.378391 -7.792840 130 157 54
-2.581079 -4.703744 -8.229403 52 59 25
-3.599010 -3.880277 -9.055368 144 125 90
-3.852208 -3.170742 -8.865343 136 148 69
2.370557 1.705850 -2.915662 152 140 95
0.354441 -4.568861 -7.263805 62 76 6
-2.143358 -7.470718 -8.788360 137 99 63
-2.725371 -7.497330 -8.636436 166 122 87
3.140346 0.231480 -0.767821 81 52 40
2.564709 1.826781 -2.461141 109 102 76
2.258546 1.764507 -3.213495 59 60 17
1.780950 0.125625 -1.086551 180 160 136
-0.580137 -7.403787 -9.644257 33 35 27
-1.222927 -7.967575 -7.902736 90 82 42
-1.952972 -4.522224 -8.627962 35 47 23
-2.274408 -7.253720 -8.806712 24 26 25
-3.490340 -4.501820 -8.114313 30 33 6
2.828685 -1.506943 -1.509029 195 159 127
0.993170 -4.950838 -5.459408 81 98 18
0.363857 -6.000858 -5.879442 91 114 24
-0.166807 0.393237 -7.178578 54 86 2
-0.708927 -0.953549 -7.870770 187 195 79
-0.268093 -6.497040 -6.273905 136 159 73
-2.158889 -5.949644 -9.235811 32 35 22
-2.207216 -8.069907 -8.380989 64 52 26
-2.218782 -5.061953 -8.366211 56 60 20
-2.647677 0.135418 -9.402620 31 51 8
-3.297021 1.334550 -10.083042 18 28 5
-3.177172 -2.116598 -9.206786 13 27 7
-2.875018 -4.892908 -8.055577 26 25 1
-3.178630 -4.768489 -8.132580 13 25 6
-3.385557 -4.482472 -8.563057 15 18 5
-3.385557 -4.482472 -8.563057 15 18 5
-3.863994 -4.487956 -8.189837 63 64 29
-3.614505 -4.758645 -7.657109 14 20 5
-4.367064 -3.330690 -8.905992 231 216 189
-10.425408 -3.872710 -17.158276 220 199 168
-10.373226 -4.127417 -16.816595 248 216 173
2.705286 1.346425 -1.734383 131 121 98
2.753740 -0.616083 -1.817744 214 200 187
2.587446 -0.694296 -2.278053 201 192 175
2.307217 -2.716426 -2.545393 175 191 102
2.161231 -2.826581 -2.960659 172 177 95
-0.145011 1.417813 -7.139434 149 155 85
-0.139167 -0.186438 -7.262497 42 76 2
-0.555414 -0.829981 -7.694463 88 94 29
-0.282096 -6.626250 -6.617284 67 71 27
-1.466689 -0.701397 -9.571409 147 178 58
-1.785695 -4.882536 -8.375710 46 45 15
-2.701820 -0.855434 -9.445820 123 144 90
-2.701820 -0.855434 -9.445820 123 144 90
-3.777550 -3.448488 -9.046813 73 88 34
-3.546733 -4.513065 -8.086929 22 28 7
-9.000375 -6.856702 -16.601376 227 203 169
3.296513 -0.409912 -0.280579 188 167 146
2.985858 -1.571817 -1.053961 167 137 111
2.938588 -1.816445 -1.172752 200 180 155
2.745911 -2.139518 -1.708890 192 176 150
2.434179 -2.616151 -2.435889 100 99 42
2.375984 -2.578142 -2.452402 105 111 41
2.168827 -0.123594 0.401036 38 28 16
-0.036681 -5.359226 -7.291109 54 59 16
-1.295362 -3.954433 -8.895561 138 141 100
-1.690137 -5.764199 -9.041718 47 43 31
-2.351926 -1.099002 -9.555712 145 167 100
-2.073850 -5.055741 -8.398073 150 152 105
-2.065588 -5.043023 -8.377051 150 152 105
-2.407801 -8.087484 -8.489230 106 90 62
-2.947581 -2.366910 -9.208923 24 30 14
-3.430092 -3.708239 -9.227014 60 63 20
-3.417397 -2.611453 -8.979312 150 173 86
-3.602158 -4.374084 -8.762602 24 30 6
-3.780714 -2.992270 -9.008857 27 42 0
-3.984818 -0.594845 -9.245470 162 178 104
-3.415143 -4.589915 -7.591370 150 160 121
-3.578129 -4.441341 -7.858153 182 173 127
-3.834137 -4.664962 -7.634854 28 34 7
-9.178380 -4.055346 -17.149858 224 202 141
-9.625846 -3.256855 -17.568363 217 192 162
-4.357738 -5.125123 -7.691219 196 190 155
-4.435723 -5.029357 -7.639959 104 91 59
-4.497512 -5.204307 -7.483148 106 100 69
3.113774 1.208292 -0.852433 103 94 77
3.021889 1.609088 -1.148790 41 29 13
2.879737 1.844917 -1.595983 73 62 44
2.596231 2.046264 -2.408645 101 89 65
2.644844 -0.407516 -2.153107 207 198 184
2.642630 -0.401212 -2.166051 204 191 174
2.459351 1.726633 -2.767643 131 115 53
2.333272 1.584696 -3.069854 51 42 9
2.164821 -0.107382 0.232473 166 171 113
0.807664 -5.609993 -5.469407 187 195 91
0.704306 -4.973691 -5.809400 189 206 79
0.492802 -4.397222 -6.839105 169 182 90
0.083843 1.378120 -7.134169 53 57 24
0.061420 0.438174 -6.988976 190 213 149
-0.629917 -0.160140 -7.883155 170 184 72
-0.951442 -7.812529 -9.093791 108 79 51
-1.090005 -8.198633 -9.062499 73 53 29
-1.339811 -7.848223 -8.931158 104 82 54
-1.339825 -7.846528 -8.928720 104 82 54
-1.345631 -8.183022 -8.967531 86 58 37
-1.344933 -8.179474 -8.963646 86 58 37
-1.779846 -0.242489 -9.644235 2 18 0
-1.715977 -8.054735 -8.751377 97 71 49
-1.911856 -7.808432 -8.796893 143 119 91
-2.278524 -7.493920 -8.745337 125 80 47
-2.384586 -7.421925 -8.773576 159 137 116
-2.406744 -7.702267 -8.643667 125 86 53
-3.122177 0.331209 -9.731260 72 94 65
-3.109330 -0.175861 -9.500127 13 28 5
-3.347389 0.780924 -9.721316 9 28 0
-3.014778 -4.595570 -8.451571 20 26 0
-3.665348 2.235660 -10.171090 6 18 2
-2.972566 -4.903243 -7.893533 33 35 13
-3.951038 1.604644 -10.105493 2 16 0
-3.712134 -2.388076 -8.937949 40 57 2
-3.658708 -1.831322 -8.802041 49 75 7
-3.969105 -0.485257 -9.078056 171 190 111
-4.531396 1.206742 -9.865238 167 180 122
-4.441736 -1.266498 -9.229768 243 250 188
-4.517488 0.810244 -9.513141 86 93 29
-4.058018 -5.169943 -7.556771 61 55 21
-10.276273 -3.405709 -17.381668 242 211 156
2.629511 -0.247177 -2.157911 173 165 145
2.478018 -0.168621 -2.182471 181 168 149
3.270385 -0.613138 -0.306827 217 204 187
2.948512 -0.623248 -1.220728 227 206 186
2.535094 -0.248864 -2.172462 135 114 87
2.662057 -0.205701 -2.038974 169 157 141
1.662348 -1.113493 -1.015516 189 176 157
2.863555 0.173001 -1.365309 57 44 28
1.502930 0.132842 -0.711867 43 25 2
2.932503 0.011973 -1.292807 118 98 75
3.124419 -0.776420 -0.659769 215 198 182
2.518123 -0.024309 -2.258460 101 91 70
2.921328 -0.861478 -1.252947 221 214 202
2.560452 0.465421 -2.388467 132 118 92
2.097647 7.086633 -1.177159 64 48 20
2.690367 4.543206 2.435463 167 177 135
3.292062 -0.509490 -0.133906 0 0 0
1.651966 -1.015683 -0.811268 175 154 127
4.233855 9.811399 8.765373 40 41 25
4.073016 10.879709 9.767678 56 57 41
4.073016 10.879709 9.767678 56 57 41
2.324418 4.975127 -0.021158 32 34 12
0.850524 -0.054857 -0.690342 239 197 157
2.540910 -0.207690 -2.397139 159 144 121
2.713944 0.779261 -1.989206 109 94 75
3.602634 -0.605798 0.646945 168 155 138
3.755241 0.511498 1.068906 167 150 122
1.273257 0.122615 -0.792957 176 152 124
3.214692 -1.024328 -0.442768 219 215 203
3.261482 -0.448450 -0.362368 160 133 94
3.169838 0.498957 -0.715721 152 126 104
3.156942 0.486460 -0.719980 152 126 104
1.763272 -1.022575 -0.569814 173 149 122
3.693153 3.861009 4.223464 115 139 61
1.737017 5.580267 0.963017 27 39 22
2.901746 5.670901 4.435911 27 29 16
2.405651 5.889530 3.598469 199 206 167
2.343160 5.925910 3.457526 61 76 30
3.973982 9.142928 8.647408 182 188 186
3.579621 0.343974 0.614308 165 151 117
2.586813 1.080582 -1.537308 103 91 69
1.294567 -0.596637 -1.909888 108 98 70
2.083471 -0.261449 0.341336 159 139 114
4.411860 2.260804 3.375803 66 85 19
4.073756 3.548332 4.456860 38 54 17
3.449566 9.282104 9.167089 83 67 45
3.251489 -1.135329 -0.309958 191 178 161
3.217332 0.081015 -0.565370 188 156 132
3.217332 0.081015 -0.565370 188 156 132
3.078480 0.766020 -0.913937 61 39 16
1.252017 -0.488177 -1.940952 70 50 23
1.332326 -0.567288 -1.658449 144 123 102
4.223803 3.330801 4.133216 95 118 28
4.146772 3.384356 4.008486 55 77 27
3.647367 4.400662 4.844296 137 150 71
5.434817 9.204793 8.847363 106 89 66
5.303773 8.721745 8.709435 110 95 69
5.254485 8.769799 8.920719 87 73 46
5.091149 7.365940 9.221585 93 74 62
2.554116 16.593523 0.218626 123 105 83
4.569656 8.652215 9.054863 145 126 86
4.540304 9.913568 8.721365 90 87 62
2.228672 6.049880 3.614898 192 191 161
2.651118 9.675250 6.786561 138 126 102
2.868209 -0.782033 -1.463151 222 201 182
3.195984 -1.160170 -0.432250 194 182 168
2.928144 -0.546396 -1.302271 218 205 189
2.640130 0.823057 -2.210398 125 106 77
2.814430 0.179455 -1.223804 86 74 61
2.771734 0.338117 -1.346903 31 22 13
3.216784 0.251700 -0.497460 115 84 56
4.455219 1.796696 3.524236 69 89 14
3.894461 3.696970 4.581025 45 65 12
3.765292 3.755198 4.670804 60 78 29
2.949865 4.351740 2.692275 28 50 3
5.298296 8.580776 8.824009 110 98 68
2.296725 16.952402 0.163784 120 107 85
4.418270 9.084510 8.500916 222 211 191
4.415495 9.100634 8.939803 118 104 74
4.434514 8.782202 9.087276 92 79 44
4.462461 8.845570 9.146626 92 79 44
2.523968 5.733736 4.332031 51 53 35
4.026768 9.096617 9.159087 83 67 39
2.322342 10.972589 6.257355 168 172 155
3.030114 9.836302 8.880224 55 52 35
3.050414 -1.000588 -0.924530 125 99 73
3.045547 -1.003377 -0.926388 125 99 73
2.666125 -0.200636 -2.039299 176 165 151
3.022983 -0.698244 -1.022899 191 175 160
2.707490 -0.091819 -1.916733 143 125 115
2.929164 -0.036564 -1.306179 102 68 39
2.755401 0.314220 -1.416022 1 6 0
2.403778 -0.773093 -0.721461 210 193 175
3.039964 0.445842 -0.863012 121 94 73
3.112453 0.870927 -0.819843 77 55 31
1.639019 -0.999873 -0.836023 171 148 122
3.840656 0.603594 1.369931 163 147 88
1.411883 -0.034408 -1.495369 184 158 131
1.288593 0.722592 -1.900590 113 87 62
4.360370 3.647903 3.409073 13 41 0
4.138133 3.344447 4.240178 107 120 70
1.189495 0.151280 -0.680320 179 161 144
4.077887 3.698148 3.922832 12 33 0
2.389391 4.609275 -0.243435 135 148 79
3.686180 4.123937 3.055097 16 33 0
3.773559 4.018017 3.708400 28 49 2
2.401343 5.094744 0.150642 27 36 0
3.038721 4.319602 2.316248 9 26 1
2.362920 5.188991 0.668785 12 29 1
3.739152 3.286616 5.076242 131 135 31
3.733202 4.072178 5.693294 228 220 106
5.475200 8.540829 8.762721 69 56 37
5.475122 8.540993 8.763128 69 56 37
1.741167 5.356410 0.774847 96 124 58
4.913604 9.854873 8.317052 67 64 51
4.913842 7.916300 8.923988 71 52 34
2.513248 16.895399 0.011878 99 90 58
3.063725 4.898796 4.796029 218 218 196
4.706700 8.319967 9.072913 78 67 39
2.177263 16.536713 0.034065 56 44 25
4.566552 9.063427 9.025908 76 63 36
4.451085 10.017357 8.612948 65 60 40
4.313536 9.027925 9.059478 140 121 79
4.313536 9.027925 9.059478 140 121 79
4.203616 9.364018 9.179830 73 58 25
1.465910 5.346002 1.737662 32 56 1
3.928760 9.176015 8.853576 85 71 42
3.144323 9.701592 6.676925 120 110 75
3.898904 9.309622 9.196568 69 52 29
3.743556 9.015486 8.765229 78 59 29
2.961471 9.923162 6.346141 73 66 48
1.667480 2.932695 3.191687 57 55 32
1.806615 15.119225 5.128922 171 173 159
1.806615 15.119225 5.128922 171 173 159
2.997412 -0.745384 -0.842159 103 83 62
2.248798 4.829689 1.598810 13 26 1
2.368391 4.791280 1.529377 31 44 13
1.920345 5.269187 -1.076172 45 39 21
1.369269 -0.658803 -1.598741 142 119 96
1.833667 4.768102 1.836779 68 103 41
4.077363 3.693833 3.290740 39 58 14
2.582252 0.001682 -1.830168 80 63 48
3.940243 3.468094 3.141007 39 55 8
2.203385 11.960148 -2.356305 80 78 25
1.299855 5.365348 -0.823663 40 28 13
1.571780 -0.097500 -1.476040 159 135 107
2.139942 -0.616800 -0.575004 43 29 16
2.680128 0.428922 -1.591370 19 55 56
2.716712 0.304984 -1.402616 15 14 10
3.827317 0.623220 1.295679 85 62 17
2.480759 4.808148 -0.904993 22 26 9
4.938140 8.929777 7.689594 70 77 62
2.437937 5.620795 4.388578 44 41 24
2.595902 0.263685 -1.515047 20 56 52
3.982302 3.474339 3.064783 110 136 62
2.144658 13.585211 -1.650110 89 83 71
1.637385 16.589762 -0.199891 227 236 219
1.637385 16.589762 -0.199891 227 236 219
3.002914 -0.768653 -0.737887 172 155 139
2.372198 -0.106647 -2.078041 73 56 38
2.831169 4.244591 2.328863 44 69 12
2.812398 0.293108 -1.226325 52 40 26
2.462199 1.729171 -2.643775 79 74 16
4.095549 3.753911 3.841828 33 48 17
2.258676 16.973013 -0.189390 6 32 45
1.592510 16.951622 -1.538758 75 58 40
1.554193 14.699638 -0.817607 73 52 45
1.385008 3.326692 2.625000 136 126 79
3.291754 -1.190118 -0.190939 141 114 77
3.174830 -0.322395 -0.616375 204 186 164
3.117537 0.283498 -0.816208 75 56 42
3.104761 0.425252 -0.858219 129 107 83
2.537446 1.629100 -2.569695 124 117 89
2.503560 1.680322 -2.642326 120 104 68
3.816757 0.313496 1.227177 147 123 99
3.925722 1.237354 1.810477 115 133 57
1.513176 0.454195 -1.312358 74 75 61
3.563386 4.733087 3.817367 108 129 65
2.461913 5.048680 2.064528 15 34 2
2.982849 5.427706 4.069418 107 113 52
1.250706 5.443929 -0.574372 44 43 21
2.259875 15.768847 -0.540409 176 203 202
2.644892 5.772156 4.178934 213 218 211
1.594388 5.226167 1.619497 32 56 6
2.275588 5.715458 3.620336 22 20 7
3.321527 -1.246924 -0.118805 123 104 71
3.318858 -1.220507 -0.136963 124 107 62
2.694879 -0.116013 -1.967712 147 137 125
3.418093 -0.729903 0.127158 194 182 168
3.169924 0.303382 -0.658336 101 58 39
2.829501 0.370615 -1.182079 81 69 55
3.883725 0.521380 1.377385 77 66 26
1.296841 -0.761826 -1.788548 120 111 78
1.832721 -1.019044 -0.333876 70 46 18
3.993785 3.970353 2.892459 26 48 3
3.320264 4.486801 2.405379 27 41 10
2.897911 4.649997 3.081174 23 41 5
2.430038 13.257699 -0.701818 194 214 164
5.192841 8.971541 8.874737 101 91 64
2.641248 4.835738 3.253367 45 60 17
2.870038 5.622186 4.228489 37 43 16
2.854945 5.402358 4.242304 40 44 21
2.902994 9.607026 6.319380 66 62 30
2.794541 10.078943 6.200003 90 79 49
2.799989 9.808638 6.350895 73 65 44
2.755437 9.618202 6.389927 53 49 35
2.674065 9.783127 6.352775 84 70 41
2.028012 17.363276 4.765349 50 53 39
2.316119 10.921574 6.231884 159 164 144
3.112206 -1.012793 -0.725485 212 199 182
3.301452 -1.152422 -0.207729 106 90 65
3.277012 -1.124249 -0.247043 117 101 65
2.542962 -0.290836 -2.292014 175 164 144
2.972223 -0.697486 -1.170258 207 185 167
2.600776 -0.265772 -2.211191 162 148 137
2.861614 -0.527352 -1.478790 209 197 181
3.262416 -0.821761 -0.323792 204 198 184
2.438105 -0.183466 -2.069035 156 134 110
2.843606 0.047082 -1.563273 140 129 113
2.891471 0.106384 -1.432703 66 43 22
2.636468 0.857551 -2.195136 84 66 42
3.010896 0.774299 -1.108217 107 91 75
2.671549 1.276238 -2.167583 126 112 85
3.839216 0.323448 1.304389 101 80 33
1.856433 -1.019634 -0.318024 148 123 92
1.200123 0.032294 -2.036778 123 104 83
1.277694 0.079879 -1.855796 163 137 112
4.301773 3.462453 3.999037 22 31 0
2.204415 6.922437 -1.585352 179 158 131
3.305715 4.358233 2.723166 14 29 1
0.981652 0.080248 -0.581031 64 20 0
2.837759 4.683545 3.041949 173 181 138
5.461648 8.742170 8.744435 51 44 25
2.204556 4.842111 2.169416 118 144 71
4.953002 8.984384 8.872241 80 65 34
4.509134 8.964984 8.501719 85 61 28
4.558449 8.952121 9.036683 72 59 31
1.549465 17.225349 -0.027081 233 227 198
1.554223 18.378078 -0.018857 58 53 45
3.289626 9.704644 6.627807 114 106 70
0.458426 5.000657 -0.121956 98 86 62
2.428715 10.113621 6.368798 76 75 49
0.287077 5.360641 -0.201249 122 118 79
1.484574 0.899520 -1.431814 159 132 102
2.495762 4.764672 2.195816 32 48 8
3.179972 -0.935555 -0.541023 217 197 179
3.039185 -0.649686 -0.951625 184 173 154
1.763148 -0.015014 -0.490434 119 119 112
2.494736 4.763705 2.194206 31 44 7
3.008894 -0.688700 -1.058327 207 193 176
2.893082 -0.861836 -0.234396 0 0 0
1.949058 -0.896117 -0.467615 108 82 59
3.081800 -1.152979 -0.776197 202 193 175
2.956319 -0.644475 -0.670603 213 196 180
4.043116 0.868560 2.120100 121 131 48
1.317901 0.599361 -1.752733 120 93 70
3.049784 3.879753 -0.682109 84 86 12
1.502482 -0.838138 -1.246716 168 142 117
1.533657 -0.599813 -1.140381 164 137 109
1.835099 -0.800318 -0.290918 177 151 126
1.206428 0.058624 -2.064872 104 73 52
3.179626 3.979754 0.051903 57 65 15
2.917265 4.278372 -0.479304 111 136 47
2.938710 4.200449 0.228010 60 71 13
2.900623 4.146880 0.202395 60 71 13
3.439396 -0.014685 -2.127285 194 186 168
2.382368 0.000312 -2.729533 145 133 107
3.198330 -0.901893 -0.522038 210 202 181
1.823463 -0.895038 -0.317268 174 144 115
2.746006 4.532912 -1.618884 47 60 15
4.276478 2.436421 3.016279 79 101 36
4.311262 3.328918 3.977776 59 76 27
3.760864 3.714873 4.222264 129 151 87
2.250975 5.256078 0.411719 42 63 20
3.083539 -1.359497 -0.695109 212 201 183
2.488758 -0.113799 -2.297955 104 95 76
3.263822 -0.498034 -0.331360 215 205 186
1.239818 0.131353 -1.993634 146 126 102
2.145811 0.140783 0.472667 123 105 93
2.728537 3.685469 -1.721800 132 138 66
3.910606 3.436061 1.910836 90 113 36
4.045716 3.953045 2.732295 42 66 14
2.595061 5.009186 0.220812 18 31 5
2.487173 -0.025171 -2.671001 164 157 127
3.186440 -1.374617 -0.471905 170 155 132
3.317216 -1.393651 -0.153888 127 109 76
2.550202 0.922008 -2.454756 90 71 39
1.504518 -0.223733 -1.259758 162 133 103
3.989560 0.384598 1.960694 89 91 26
1.955277 0.190086 -0.006930 188 161 131
0.927561 0.010988 -0.717442 182 118 59
4.382918 2.312861 3.228077 71 84 15
3.007250 3.957943 0.014728 121 151 65
4.164511 2.895530 2.912926 90 119 35
3.335056 4.040032 0.757441 61 74 6
3.244146 4.083838 0.608500 67 84 16
4.301846 2.454837 3.810651 94 120 47
2.700366 5.111690 -0.844663 8 12 0
3.733604 4.286021 2.714306 48 72 13
2.726733 5.143584 0.442963 20 29 10
4.223996 3.268565 4.850222 73 93 47
3.953165 3.642041 4.359254 25 41 15
3.981919 3.577998 4.686339 77 88 28
2.658190 4.723605 1.932272 13 23 0
2.766900 4.908341 3.254924 43 53 9
2.445629 -0.065366 -2.663414 161 156 121
2.600714 -0.307066 -2.223151 98 88 76
3.161185 -1.334857 -0.558367 179 164 141
3.295826 -1.424351 -0.209564 171 153 139
2.955814 -0.761122 -1.180237 201 185 162
3.315347 -1.437436 -0.131198 182 165 137
3.381003 -1.042386 0.037871 200 187 168
1.310699 -0.719320 -1.733622 161 131 105
3.392609 -0.870694 0.090087 203 192 174
2.680990 0.657282 -2.084205 102 92 63
2.659381 0.672038 -2.116569 72 57 29
1.487587 -0.759213 -1.253332 147 125 100
1.449999 -0.307986 -1.393929 198 171 143
1.608114 -0.493446 -0.936526 179 150 120
1.425108 0.011570 -1.468445 159 130 100
3.875557 -0.040658 1.484332 120 90 46
3.862973 0.009065 1.517482 156 140 99
3.072308 4.012280 0.195628 54 74 12
3.071677 4.005941 0.192705 54 74 12
3.714794 3.839604 2.053952 53 77 10
2.822740 4.194589 0.456644 122 159 84
2.186064 4.757192 -0.032965 8 27 0
2.272467 5.095894 0.367108 21 47 0
1.531790 5.257552 -0.908869 40 30 18
2.679665 -0.422696 -2.014679 212 195 181
2.919797 -0.893582 -1.255947 222 215 197
2.838941 -0.678438 -1.560818 219 203 188
2.667039 -0.106167 -1.983708 106 87 70
3.069407 -0.854281 -0.823493 105 89 74
3.001338 -0.693266 -1.059186 210 193 177
3.515686 0.206874 -1.710550 151 132 115
3.311391 -0.992216 -0.039726 183 170 151
2.406687 0.978130 -2.872333 135 122 96
2.663195 0.524255 -2.136446 88 73 50
2.639904 0.613138 -2.192492 104 73 42
2.662244 0.593423 -2.131091 75 55 30
1.464138 -0.473314 -1.340479 169 143 113
1.474651 -0.195253 -1.325970 149 123 94
1.273812 0.191564 -1.882482 145 119 91
2.603718 2.167312 -2.469484 128 114 87
1.297408 0.518773 -1.866598 153 123 97
1.296281 0.744298 -1.870104 136 104 81
2.064647 -0.038763 0.307093 175 145 118
2.074080 0.023591 0.354351 177 152 120
4.253289 1.451932 2.745756 100 118 36
4.268944 1.413590 2.854557 137 148 75
