ply
format ascii 1.0
element vertex 1199
property float x
property float y
property float z
property uint8 red
property uint8 green
property uint8 blue
end_header
0.422216 3.448926 -1.790816 51 51 46
-0.894044 1.755754 -2.180417 136 137 131
-3.731412 2.789962 -2.215933 88 87 83
-0.925131 1.672870 -2.411822 135 140 133
-2.308128 1.493898 -2.281836 46 49 40
-1.854410 3.228622 -1.833455 215 207 204
-2.641930 1.521339 -2.331442 130 138 127
-0.950946 2.689308 -2.493569 177 171 165
-0.280525 1.830390 -2.978997 136 135 139
-2.274349 1.532254 -2.337366 105 111 101
-5.580761 -7.851116 -4.556519 139 154 135
-0.983771 1.502720 -2.222990 46 46 41
-0.729387 0.736830 0.297030 207 199 188
-1.701285 1.545025 -2.385359 87 97 86
-1.244054 1.113706 0.187923 202 184 170
-0.388245 2.755072 -2.541862 216 220 231
-0.653903 1.055032 -0.206654 148 144 135
-1.303531 1.587080 -2.453866 28 38 27
-1.480308 1.631995 -0.196178 225 212 196
-1.429563 1.608346 -0.197372 97 84 69
-2.423574 1.686928 -2.658419 114 120 106
-1.783467 1.809157 -0.329051 183 176 165
-2.461583 1.717450 -2.733383 97 105 90
-1.152880 1.560085 -0.269018 215 199 176
-4.044697 -3.285083 -5.089785 117 112 102
-0.065807 1.995590 -2.925052 190 190 192
-3.430866 -4.882640 -6.419880 230 213 196
-1.248065 1.753098 -3.055419 128 121 117
-3.426122 -2.710176 -4.796063 63 54 45
-0.649634 0.653404 -0.094886 72 69 62
-3.759693 -1.582720 -4.358758 249 240 231
-4.646173 1.764996 0.240194 217 245 249
-2.300786 -3.918972 -5.861947 79 76 63
-3.629467 -0.514665 -3.783007 64 62 56
-0.623468 0.825462 -0.318326 91 97 85
-3.663065 -0.282060 -3.927628 90 81 74
-1.059661 1.059017 -0.655142 206 197 188
-4.753582 2.638877 -2.109908 112 117 111
-1.369570 1.229936 -1.142851 62 72 57
-4.743950 3.300211 -1.825079 159 168 163
-5.185203 4.638623 -1.116932 15 28 11
-4.870305 3.749753 -1.585194 143 153 145
-4.229011 4.418693 -1.245010 134 144 144
-2.450798 2.686231 -1.649777 253 247 240
-0.236450 3.731134 -1.525295 102 125 77
-3.421148 3.333339 -1.777836 212 208 182
0.621081 3.756572 -1.521295 208 207 213
-2.292904 2.692291 -1.650818 232 222 218
0.473934 3.506520 -1.773200 111 107 103
-1.325648 2.286693 -1.625159 239 222 204
-0.155628 3.223945 -1.841707 65 61 58
-1.656765 3.052936 -2.365901 64 55 46
-1.454782 1.685001 -2.053351 208 204 193
-1.261415 3.389135 -1.721649 235 220 199
-4.232072 1.700512 -2.618847 171 183 183
-6.742570 -6.022442 -4.378479 156 163 156
-1.791000 1.563730 -2.398530 89 99 88
-5.013792 -4.870420 -3.869021 81 86 80
-1.105790 1.519790 -2.302260 88 99 85
-5.583970 -8.480984 -6.497864 44 47 36
-2.308743 1.609336 -2.479241 68 71 60
-6.012343 -4.972626 -5.444878 80 86 82
-3.471182 2.269007 -2.779239 175 149 136
-1.531055 1.407498 -0.103757 247 235 223
-3.479231 2.284145 -2.781891 175 149 136
-5.328345 -6.722771 -6.630420 41 47 37
-3.529001 2.241516 -2.781473 203 190 184
-4.988497 -6.413143 -6.622485 99 105 95
-2.311109 1.608326 -2.524004 66 74 61
-3.589454 -5.930472 -6.389508 238 228 219
0.740837 3.033952 -2.422246 246 245 250
-4.543459 -3.313647 -5.150295 69 78 70
0.787140 2.738035 -2.513807 220 224 235
-4.853936 -3.093581 -5.116721 159 168 165
-2.430715 1.769535 -3.046632 158 155 148
-4.489500 -2.937323 -4.955038 120 127 119
-0.765487 1.982152 -2.929174 215 214 209
-1.222679 1.669190 -0.298077 93 79 63
-1.997738 1.772668 -3.047392 153 150 133
-3.502179 -4.165722 -5.967233 93 83 74
-1.185423 1.771410 -0.465848 184 178 166
-2.194414 1.654330 -3.081914 166 169 165
-1.268029 1.840975 -0.626995 167 159 148
-1.666571 1.647963 -3.088763 91 125 92
-2.517026 -1.096691 -4.450797 154 184 146
-1.217133 1.706545 -3.057782 189 192 183
-4.123849 4.081984 -1.516297 227 231 216
-0.602892 1.668337 -3.066681 106 146 112
-1.016747 1.788630 -2.001594 208 207 206
-4.818193 1.448562 0.256579 223 247 247
-1.657352 2.683409 -1.638846 151 148 141
-2.515157 3.244483 -1.833599 164 164 172
-2.447538 0.885347 -0.504144 133 128 124
-2.315854 3.266110 -1.809175 192 193 198
-2.574618 0.907265 -0.576324 128 123 111
-0.912438 1.819842 -2.991092 217 214 209
-1.558550 0.948199 -0.555479 187 183 174
-1.617357 3.622423 -1.481525 60 78 24
-1.774927 0.918764 -0.696438 164 154 138
-1.608202 3.918909 -1.380025 70 88 36
-4.669121 5.042649 -0.851872 116 137 120
0.692227 0.608378 -3.578091 242 226 213
-4.272917 3.304180 -1.776748 182 192 194
-4.728436 -5.532804 -2.850431 63 74 59
-4.710670 2.258009 -2.317214 153 165 161
-4.750764 -5.383718 -3.260410 72 85 65
-4.136777 2.224749 -2.309950 126 136 138
-4.760045 -5.211540 -3.614354 97 103 89
-6.655379 -6.347974 -4.651157 144 150 146
-0.525697 3.174884 -2.344464 218 218 218
-4.674457 -4.827803 -3.460332 25 31 21
-4.160756 1.101566 -2.650212 48 55 53
-4.674457 -4.827803 -3.460332 25 31 21
0.009950 2.604099 -2.611242 179 174 180
-0.766730 0.992603 0.156766 207 195 183
-1.250937 1.790749 -3.035204 94 83 81
-0.764516 0.993001 0.158362 207 195 183
-1.100174 1.715933 -3.061613 200 196 188
-5.518864 -7.389349 -6.157873 17 20 11
0.394651 1.765178 -2.996110 243 236 229
-4.489383 -4.480760 -4.194845 68 76 61
-4.735856 1.440039 0.156261 232 254 252
-5.975482 -8.571300 -7.369434 15 18 9
-0.680055 0.897793 -0.411888 72 81 76
-9.439425 1.783806 -2.619060 48 53 47
-2.834313 1.055284 -0.575716 106 105 95
-4.790611 -3.775621 -5.282252 65 66 61
-2.137539 0.927188 -0.604549 134 132 116
-1.653691 1.802985 -0.426576 209 198 185
1.563278 11.188562 1.927761 59 78 32
-1.929684 1.918679 -0.582669 55 52 43
-5.856679 1.922144 -2.512648 99 108 103
-4.385553 2.882307 -2.281371 124 134 135
-2.538857 -3.552378 -5.627790 121 116 100
-1.295474 1.826675 -0.566786 73 76 69
-0.438128 3.364943 -2.203696 36 37 32
-4.015337 1.734078 -2.520161 52 56 49
-3.797822 1.405280 -2.755089 218 217 223
-4.015337 1.734078 -2.520161 52 56 49
-3.760159 1.195903 -2.843204 210 209 217
-5.238593 3.376208 -1.774360 140 150 141
-0.862499 1.958908 -2.938883 222 209 193
-4.322918 2.785007 -2.066965 154 163 161
-2.132363 1.606342 -3.093489 91 120 90
-1.515560 2.218474 -1.599879 136 126 114
-1.276532 1.712052 -3.057866 175 167 162
-1.411345 2.088135 -1.662779 135 125 111
0.179513 1.903392 -2.957407 183 184 192
-1.477893 2.379462 -1.676113 231 218 201
-4.646309 1.583570 0.140866 113 150 167
-2.984801 3.010467 -2.348002 196 188 177
-1.888069 2.740730 -1.802249 148 145 138
-3.218221 1.151195 -0.638287 56 57 50
-2.174407 3.841330 -1.441061 48 70 21
-2.291715 1.104780 -0.937548 41 49 38
-0.884058 2.325345 -2.759119 239 224 217
0.814283 4.714167 -0.989772 44 67 25
-0.932571 2.759611 -2.515624 114 105 98
-2.722703 1.678100 -3.033023 94 90 81
-0.534843 0.832395 0.018108 232 223 218
-1.424538 1.840868 -2.951126 10 9 5
-4.802343 -5.876206 -6.329946 58 63 56
-7.766588 1.456953 -2.551763 126 135 130
-0.894726 1.630915 -3.073132 103 139 105
-5.241221 2.406258 -1.673880 151 160 155
-0.445864 1.584400 -3.043358 112 158 119
-1.362648 1.823983 -0.490745 159 155 145
-1.970709 3.115209 -1.901515 211 205 198
-0.638304 0.712292 -0.130838 62 63 55
-1.365737 2.766255 -1.835521 175 172 162
-12.849958 19.117195 6.930928 30 37 30
-2.090164 3.638272 -1.514985 107 126 83
2.642761 12.274290 2.345196 212 203 198
-0.808439 1.562775 -3.089086 116 155 120
-4.450210 4.638488 -1.119725 177 189 186
-2.067981 4.044401 -1.365539 59 79 41
-0.332156 3.607012 -1.597085 60 71 39
-1.034266 2.805628 -1.870985 174 172 164
-2.290398 1.517802 -2.274127 90 91 83
-1.764782 4.137201 -1.276724 71 92 36
-5.901870 -6.586487 -6.015043 13 18 11
-2.380885 2.003452 -1.621522 34 37 26
-9.611859 1.628162 -2.338853 30 36 27
-0.882243 2.787040 -1.582820 33 43 18
-9.142437 1.606785 -2.460073 111 117 117
-4.103101 2.027174 -2.389770 130 143 145
-5.136562 -5.782513 -6.454354 87 93 83
-1.783145 1.724961 -3.060441 150 142 129
-3.358345 -3.929605 -5.208491 235 232 219
-3.691480 -3.269706 -5.114264 238 228 226
-3.010871 2.700275 -1.799998 233 227 213
-3.683557 -3.262711 -5.104628 238 228 226
-0.203326 1.742606 -3.020569 206 206 212
-6.238407 2.374341 -2.135658 156 165 162
-1.300203 1.016934 -0.785638 114 112 99
-4.643179 3.730103 -1.381998 137 147 138
-1.443951 2.149158 -1.459851 199 185 167
-0.667415 1.872569 -2.940601 217 217 219
-3.641613 2.913307 -2.497219 213 200 191
-1.980319 1.815955 -1.961018 189 185 176
-2.577650 2.809411 -1.838032 119 119 111
-0.687443 1.991722 -2.915124 220 218 219
-2.001621 3.030870 -2.279838 92 84 73
0.357624 14.204520 3.909937 242 249 233
-2.291039 3.938462 -1.391196 89 111 49
-3.736242 12.264470 2.912112 145 170 166
-1.465806 3.040281 -2.297587 77 72 63
-2.676295 8.835340 1.057086 69 90 33
-1.519485 1.288990 -0.037602 254 240 228
-0.762060 0.635207 0.089376 86 79 73
-3.044138 -4.463826 -5.989994 189 179 169
-4.329038 7.982843 0.526304 151 159 159
-1.152400 1.737698 -0.502232 169 163 151
-4.635055 7.915578 0.509522 179 196 193
-1.422850 2.013096 -1.257810 85 78 66
-0.888503 0.744026 0.064557 109 108 103
-4.675569 1.818972 0.167295 243 255 252
-1.402448 1.003229 -0.126847 174 166 153
-6.106715 -8.275808 -7.544615 78 80 69
-0.629973 0.771772 -0.223738 43 48 44
-3.438256 -5.067118 -6.218930 61 58 51
-0.630794 0.769723 -0.224367 43 48 44
-3.476296 -3.855924 -5.559235 62 59 53
-1.365623 0.987788 -0.320959 225 217 204
-2.511803 -4.075412 -5.891128 98 96 84
0.639659 3.946530 -1.402273 190 201 185
-2.044497 2.304330 -1.727244 213 199 190
-1.490308 0.961253 -0.630693 157 156 151
-0.955319 2.511955 -1.820340 150 150 142
-5.052536 -6.398021 -4.476474 44 52 39
-0.264650 3.503719 -1.666011 241 244 240
-3.735152 -3.784461 -5.199432 192 187 180
0.369822 3.448702 -1.755362 100 102 125
-0.654640 0.942048 -0.036612 190 178 167
-1.749522 1.064156 -0.981440 111 116 110
-0.753446 2.345396 -2.728202 224 209 204
-3.521499 3.080313 -2.025517 22 24 19
-1.779464 3.522511 -1.637129 51 72 27
-0.290000 3.163285 -2.329221 203 206 215
-5.909969 3.125727 -1.830392 145 151 148
-0.413569 3.078964 -2.396044 224 228 233
-0.881229 2.232564 -2.208041 109 110 104
-0.418631 3.062924 -2.389327 224 228 233
-4.840954 1.157012 0.121441 234 248 250
0.267069 3.067704 -2.382832 236 242 254
-1.244612 1.145358 0.147083 234 216 202
0.402958 2.978685 -2.435288 226 221 217
-2.324072 -0.654664 -4.161224 157 195 156
0.769725 2.831081 -2.489434 169 175 187
-9.399514 -5.180017 -4.105156 1 4 0
0.152593 2.809537 -2.506219 165 168 180
-4.628943 -6.897254 -4.898981 11 22 8
5.509197 15.460749 4.199560 67 66 61
-2.848819 -5.487483 -3.925681 220 202 184
5.509197 15.460749 4.199560 67 66 61
-10.254405 -4.294694 -5.051469 84 96 86
-4.908298 11.208710 2.978991 70 89 85
-2.397354 -5.170674 -4.389962 134 134 126
1.107815 12.720913 3.097035 45 76 14
-0.584781 0.791083 0.196385 210 194 181
-2.133376 13.256495 3.249944 102 122 113
-4.234547 -7.405962 -6.653660 60 68 51
-5.003139 11.218516 2.840908 72 93 84
-4.288391 -7.297171 -6.921682 56 65 45
-5.485749 11.598713 2.926903 41 56 49
-0.965459 1.143805 0.095325 185 172 155
-0.965429 1.131532 0.060024 149 136 120
-4.678254 11.876566 2.772799 93 108 105
-0.934951 1.151156 0.048337 151 140 122
-3.897199 10.458887 1.887096 69 91 45
-3.973139 -5.951784 -6.407118 203 211 200
-1.178806 0.858914 0.245201 186 185 181
-2.146878 -4.941084 -5.237681 149 136 134
-0.709424 0.604049 0.150026 177 172 168
-3.836983 -3.667679 -4.998359 97 98 92
-1.278328 0.902356 0.123153 77 77 69
-1.931425 -4.603999 -5.208038 220 208 194
-0.720470 0.583914 0.091138 60 59 54
-0.654313 1.050283 -0.208009 149 144 138
-3.561631 7.469939 0.386436 151 179 119
-3.587984 -2.793946 -5.202816 104 96 85
-1.451496 0.999874 -0.041362 153 148 142
-1.611730 1.745288 -0.331949 188 178 166
-0.756744 0.701979 -0.108981 29 34 37
-1.511180 -3.557048 -5.588469 124 178 128
-0.778717 0.734627 -0.144668 20 26 26
-3.637954 -1.172330 -4.383933 100 91 82
-1.228217 0.989747 -0.243345 89 86 79
-2.467874 1.915043 -1.004282 132 129 114
-1.191501 1.013275 -0.383968 184 181 174
-1.221906 1.813360 -0.609654 77 71 59
-0.666826 0.863713 -0.378945 82 91 90
-4.836751 2.984900 -1.957090 120 128 117
-1.169415 1.000886 -0.596243 168 164 154
-2.130015 2.298634 -1.722194 228 215 206
-1.256637 0.948196 -0.606475 211 206 200
-2.137425 2.477609 -1.660293 232 219 207
-1.445261 2.334567 -1.700495 203 187 171
-2.035496 0.932045 -0.691084 158 160 147
-0.952103 1.987599 -1.910567 223 222 217
-4.657682 3.645983 -1.595386 143 162 156
-2.658105 3.271575 -1.833347 186 187 193
-2.017046 0.932177 -0.747933 120 103 85
-1.735947 2.784220 -1.882862 67 74 67
-1.657601 0.948499 -0.761292 47 47 43
-2.705867 3.769303 -1.483035 135 154 109
-1.690473 0.942476 -0.762101 154 147 144
-0.920942 2.053318 -2.599883 106 104 92
-2.038690 0.941933 -0.766602 156 140 124
-0.912844 2.179265 -2.548872 98 91 81
0.015853 3.472248 -1.674669 193 199 213
-0.937842 2.253451 -2.630560 157 151 141
-1.996006 0.944969 -0.793638 132 121 100
-0.956543 2.697394 -2.035384 133 132 124
0.675874 0.714852 -3.578573 237 228 209
-0.068040 3.254372 -1.792354 198 203 219
-4.800895 1.131113 0.053762 197 213 217
-0.500872 3.164080 -1.840757 187 198 215
-4.795479 1.132963 0.055393 197 213 217
-0.540322 3.145552 -1.883998 63 68 62
-3.090453 -5.516085 -3.932423 230 223 205
-4.692997 1.012648 -0.318789 30 38 32
0.065144 3.385021 -2.235240 187 190 197
-2.235065 -5.105055 -4.032501 72 68 59
-2.208380 2.154067 -1.732459 146 142 133
-2.232985 -5.098200 -4.031165 72 68 59
0.524114 3.169351 -2.332374 209 211 219
-9.948236 -4.029691 -4.915708 29 40 31
-1.401800 1.683555 -1.824784 135 132 125
-2.135964 -5.101658 -4.066461 160 159 152
-3.736209 2.772830 -2.529109 69 65 63
-2.188530 -5.077093 -4.190884 76 75 71
-2.179416 1.835197 -1.972392 189 188 180
-2.149634 -5.028113 -4.262964 113 112 108
-0.188492 14.086183 4.006888 131 146 141
-0.953431 1.122521 0.137327 164 151 134
-4.661175 10.909286 3.070106 70 89 83
-4.411954 -6.204484 -6.513818 120 125 119
0.246167 13.714128 3.635476 55 83 25
-0.574770 0.973823 -0.112465 170 162 156
-2.422986 14.106646 3.393221 97 116 113
-9.973506 2.013895 -2.602957 70 73 66
-5.756063 11.247060 2.132208 85 99 74
-2.285347 -4.168528 -5.152680 103 104 92
-1.348043 0.945496 0.167801 43 48 42
-1.620280 -4.180592 -5.188653 151 155 144
-1.761971 1.085021 -0.116555 155 152 143
-3.466373 -3.201514 -5.384542 223 211 197
-0.790478 0.855675 -0.251955 17 26 25
-1.985028 -3.908342 -5.740957 140 141 133
-1.066858 1.565449 -0.331369 214 195 178
-2.199806 0.966265 -0.380106 189 186 177
-1.043633 1.544874 -0.380336 223 206 190
-2.202405 0.937733 -0.471134 181 176 172
-1.330905 -3.832508 -5.761505 88 97 76
-2.203115 0.940920 -0.471797 181 176 172
-6.518440 2.748183 -2.071253 147 158 152
-1.628589 0.933735 -0.572108 172 169 162
-6.652076 2.836831 -2.095801 146 157 151
-7.142087 2.952658 -2.287921 159 165 161
-0.461241 3.311690 -1.742231 243 245 244
-4.722950 2.625915 -2.183059 35 42 34
-0.459039 3.330089 -1.749959 243 245 244
-4.547185 2.947138 -1.998819 151 161 160
-0.810703 3.124681 -1.919870 52 51 46
-2.306969 2.800899 -1.814232 149 150 142
2.114370 12.747512 3.053773 24 40 11
-1.079762 2.681792 -1.638786 156 150 138
3.645494 10.050735 2.339607 38 40 37
-1.887985 3.368618 -1.704513 203 203 180
-0.618667 11.653807 2.606269 72 102 41
0.676787 1.035411 -3.374540 232 223 208
-4.683671 9.283927 1.359723 81 99 81
-1.214450 3.057694 -2.341197 48 44 35
-3.962571 9.509565 1.393389 224 231 238
-5.341492 -8.146530 -4.620989 75 87 75
-1.494493 0.975318 0.094227 120 124 123
-4.801715 1.291278 0.081095 229 249 250
-1.443701 0.985304 0.078067 46 45 40
-4.737243 -7.850726 -6.821483 39 46 28
-0.551903 0.840159 0.138654 85 71 60
-0.681047 0.623355 -0.027550 101 97 90
-0.556794 0.856562 0.075885 88 81 75
-1.247351 0.937295 -0.067233 93 94 88
-10.382005 1.800152 -1.952942 100 109 106
0.099325 4.173218 -1.250814 30 53 13
-4.423891 -6.947191 -7.030486 83 90 79
1.063270 4.132291 -1.303452 189 195 211
-3.921848 -7.202585 -7.108005 81 75 64
-4.787896 -5.643130 -6.367012 97 104 93
-2.046176 -4.960274 -5.302614 190 178 164
0.450219 3.942609 -1.353903 31 51 14
-0.967231 1.199218 -0.065713 125 116 101
-0.125365 3.746686 -1.483243 82 105 61
-2.013924 -4.741176 -5.246820 172 158 145
-1.223897 1.011416 -0.774322 99 98 93
-3.458683 -5.070187 -6.075818 36 32 21
-1.867390 0.928014 -0.823614 104 102 95
-0.625382 1.029796 -0.123207 168 161 151
-1.437438 1.107358 -0.990186 29 36 28
-1.704281 -4.288621 -5.033253 228 227 209
-4.195995 2.997994 -1.964177 116 130 135
-2.255433 -4.042415 -5.266510 102 106 93
0.155411 3.446078 -2.211889 142 145 152
-1.760533 -3.918824 -5.722919 158 161 148
2.945070 13.091906 3.284358 227 227 237
-1.230174 1.801576 -0.459312 121 114 104
-1.317748 12.523231 2.904715 55 75 22
-6.496644 3.283719 -1.890778 159 169 161
-5.361049 11.023534 2.212828 37 50 32
-1.413527 1.578380 -1.355356 104 102 90
-0.935521 0.762843 0.298328 93 95 94
-2.299834 3.260660 -1.800937 186 189 193
-0.528256 1.774257 -3.018892 167 172 165
0.363072 1.155912 -3.285303 179 206 175
-0.826381 0.684193 0.022454 190 190 182
-4.999111 -7.857768 -4.465433 27 40 23
-1.988896 0.908626 -0.594374 185 182 176
-1.269901 1.061949 0.247188 236 220 207
-1.436482 0.950936 -0.605111 135 132 125
-6.292901 -9.554773 -8.576567 24 32 19
-1.111382 1.093193 0.225203 238 219 202
1.351853 4.307220 -1.757587 205 196 190
-4.831323 -6.539111 -6.578286 42 52 36
0.073547 3.440066 -1.682913 186 193 219
-4.202711 -7.058589 -6.948133 71 76 61
-2.450224 1.019412 -0.889936 27 30 23
-2.158778 -4.676836 -5.072752 237 229 218
0.691316 2.876833 -2.480968 231 235 246
-3.429339 -4.982879 -6.309099 70 66 57
-4.547880 11.144878 2.739706 111 130 124
-2.816537 -3.995440 -5.776860 152 145 138
-0.798963 0.636990 0.045570 65 64 60
-7.895702 2.660440 -2.003147 133 142 139
-1.959813 1.880491 -0.439470 92 90 78
-2.512022 -2.615222 -5.284606 139 182 136
-0.690767 1.980316 -1.246908 190 196 218
-4.658980 2.087696 -2.450137 110 118 120
0.033703 3.288913 -1.771372 212 215 222
-2.571673 2.165521 -1.485179 23 23 15
-1.157838 16.115093 3.990876 158 173 175
-2.174035 2.383100 -1.699877 231 214 198
-4.863274 4.053953 0.108178 30 44 18
-3.504002 2.949309 -2.320513 220 205 197
-1.537641 0.958711 -0.397249 211 208 201
-1.094129 1.423940 -2.253261 105 141 109
-0.732710 0.555372 0.208100 115 114 109
-2.299642 2.922717 -2.022409 149 144 140
0.798419 3.148960 -2.335287 234 234 232
-1.442795 2.677028 -1.668144 169 158 151
-2.220930 2.016823 -1.535128 229 226 221
-2.060777 3.437017 -1.510276 0 0 0
-1.897011 0.904556 -0.637186 177 164 148
-2.147157 3.733294 -1.505916 30 48 14
1.157003 4.076919 -1.844640 209 204 203
-0.955514 2.787451 -2.396952 164 161 152
1.757850 17.062366 5.333666 202 207 203
-4.700490 -8.690261 -4.940995 114 125 119
-4.432763 10.913469 2.562057 88 99 95
-4.740856 -7.832581 -6.127306 71 79 64
1.384927 11.826218 2.628743 33 43 18
-4.365181 -7.421921 -6.832457 46 53 38
-1.452587 1.005293 -0.117186 158 151 142
-4.139836 -7.438273 -6.953784 102 114 94
-2.397435 -4.807637 -5.282270 139 132 124
-1.987716 0.950617 -0.400051 172 169 162
-1.923109 -4.201329 -5.255734 95 101 94
-2.449894 0.887781 -0.445722 170 165 168
-6.941789 3.414298 -1.804892 112 122 113
-1.196944 1.008339 -0.419268 195 187 176
-1.352792 2.091584 -1.796167 179 161 147
-2.311244 0.918932 -0.521394 111 108 101
-1.809776 2.874565 -2.028895 172 175 168
-0.566109 0.871680 -0.423225 60 61 55
-1.866850 2.885872 -2.103159 172 175 168
-0.599016 0.890755 -0.446066 52 53 45
-1.983725 3.465427 -1.599814 55 77 38
-2.287418 0.962906 -0.652923 20 19 14
-1.685383 3.413875 -1.615639 56 73 39
0.101449 5.673811 -0.485972 35 63 6
0.716014 0.734872 -3.550193 231 209 192
-2.409491 0.970774 -0.782121 126 125 120
0.813444 0.765821 -3.515525 185 183 186
-5.005011 0.851414 0.007460 5 9 11
-1.278521 1.105969 -0.914796 32 37 30
-3.425081 -6.306173 -6.476923 227 215 201
0.067391 4.608457 -1.044001 42 62 23
-2.374452 -4.309684 -5.082924 233 225 212
-1.331258 1.154841 -1.022576 66 71 64
-7.206612 2.471335 -1.819544 137 144 136
0.929924 4.167715 -1.257383 173 172 169
-8.687272 2.888982 -2.166720 144 150 148
-4.729939 3.005152 -1.934866 147 157 156
-1.928951 -3.994949 -5.659338 84 93 84
0.799601 3.975462 -1.393315 244 241 234
-1.936893 -4.019045 -5.681094 84 93 84
0.951446 3.856398 -1.451921 231 228 234
-8.402187 3.111313 -2.121808 106 112 110
-1.019312 3.423963 -1.678439 20 24 9
-7.395222 3.291416 -1.929057 137 146 143
0.774328 3.798426 -1.527543 247 240 244
-2.453401 2.122024 -1.510740 211 197 194
-4.643838 2.513555 -2.023544 139 145 141
-2.464424 2.121801 -1.520306 211 197 194
-1.451099 1.417846 -1.413312 65 68 61
-1.609845 2.322791 -1.731289 225 213 201
0.538137 3.579970 -1.575808 178 178 187
-0.918701 1.757309 -3.032018 201 197 194
-0.960658 2.441464 -2.212362 148 148 138
-1.178516 2.284916 -1.734640 244 232 218
0.618808 0.823443 -3.533176 159 183 151
0.255954 3.371240 -1.802307 161 155 148
-5.636077 1.414400 -1.249160 37 56 40
0.697686 3.773636 -2.013255 36 31 25
-7.429765 3.072701 -2.093488 110 116 114
-0.118676 3.439185 -2.179042 12 7 3
-2.436183 1.946252 -1.555743 57 56 54
-2.493475 1.685194 -2.050328 177 173 164
-6.041533 -8.190192 -7.475326 63 61 53
-0.625392 3.333465 -2.243810 19 15 9
-1.473444 -3.963643 -5.751206 80 85 73
-0.610391 3.314015 -2.268241 141 136 131
-4.689339 2.468075 -2.192118 33 38 34
-1.957760 1.685981 -2.041241 165 162 157
-2.294482 2.233131 -1.514754 213 201 185
0.123260 3.301711 -2.292805 220 217 224
-2.725156 2.624952 -1.694499 230 226 215
0.175150 3.261682 -2.290333 194 191 198
-6.987973 2.681687 -2.051793 88 94 90
-1.461074 1.586589 -2.103336 212 211 206
-3.028521 -3.564202 -5.638194 229 211 197
-2.271977 1.501400 -2.237365 37 42 35
-1.825752 -3.311017 -5.511756 135 178 132
-2.218115 1.469091 -2.226620 33 40 33
-3.804871 3.161825 -1.807908 240 237 243
-0.953890 1.571172 -2.442398 122 145 127
0.747441 3.026573 -2.403064 242 240 245
-4.801369 0.768867 -0.120496 1 6 2
-3.666075 2.064681 -2.847609 184 168 152
-1.367597 1.783036 -0.989283 95 91 81
0.433181 2.953470 -2.446971 253 249 253
-2.667292 3.984210 -1.430244 61 86 31
-2.603207 1.619352 -2.532203 82 85 76
-2.032077 2.503021 -1.648968 228 226 216
4.946880 25.731735 9.933574 76 74 62
-4.891153 -8.612584 -4.175526 124 137 121
-5.087818 -8.119851 -4.022598 129 144 127
-1.028679 0.830306 0.171394 96 92 86
-25.646122 -5.841530 -7.459105 5 10 6
-1.144293 0.863668 0.107553 158 153 147
-12.671653 -2.410942 -3.641906 14 19 15
-2.014448 -5.027795 -4.137516 58 56 43
-5.163034 4.300533 0.428974 133 163 101
-0.872904 0.840428 0.296394 249 236 222
-1.257867 0.974433 -0.178840 101 101 93
-3.889761 -6.863210 -6.828596 177 175 162
-2.442269 0.728762 -0.421504 219 215 214
-2.325250 -6.477123 -6.277299 158 184 119
-1.751125 0.919878 -0.535083 212 205 197
-0.874794 1.132264 -0.024945 114 112 91
0.969220 5.633141 -0.455799 38 62 14
-0.749863 1.091517 -0.059264 166 156 142
0.775319 5.355676 -0.629612 38 61 6
-2.601875 -3.844502 -5.722291 225 214 202
-2.660581 1.051230 -0.888770 33 36 29
-1.292823 -4.037774 -5.495268 149 153 139
-2.069793 0.987819 -0.875922 116 113 103
-1.413445 1.593836 -0.152928 232 217 198
0.169546 4.770437 -0.953064 45 70 12
-2.445808 1.741489 -0.479644 180 174 162
-1.380741 1.315629 -1.243091 28 34 32
-1.259605 1.699342 -0.316327 199 183 168
0.977008 3.957376 -1.424098 188 187 193
-4.797894 1.517884 -2.662358 67 73 61
-4.382895 2.926200 -1.976394 178 188 189
-1.139966 1.748633 -0.505331 165 156 141
-0.133384 3.583697 -1.615322 175 173 169
-5.022661 2.236872 -2.376101 105 114 109
-0.225122 3.323878 -1.754492 239 237 242
-1.336446 1.916230 -0.786154 151 143 133
-4.354084 2.484776 -2.196204 163 171 174
-1.333024 1.918320 -0.784034 151 143 133
-0.918966 2.494467 -1.695439 175 183 194
-2.549665 2.215658 -1.589692 48 46 37
-1.153484 2.352669 -1.710619 239 226 217
-1.381822 2.105080 -1.452319 184 174 165
0.524376 3.561962 -1.816702 40 38 39
-2.114247 2.691357 -1.653237 253 245 238
0.429220 3.540766 -1.901625 32 30 31
-1.426485 2.380177 -1.694247 245 226 211
-4.480819 3.502512 -2.700911 244 241 247
-3.394455 3.761778 -1.530316 31 47 3
-1.542573 1.790000 -1.899774 146 145 141
-4.215208 4.471678 -1.194771 90 97 97
-3.566321 2.792486 -2.542030 178 173 167
-0.949029 2.620287 -1.734277 169 168 163
0.607002 3.404596 -2.225352 191 193 205
0.747217 0.803681 -3.495014 242 228 215
-0.132846 3.162221 -2.359928 222 217 221
-0.102120 1.718601 -3.032195 213 210 206
-2.007318 1.496408 -2.271589 77 84 76
-4.702420 -8.155115 -4.339730 123 133 124
-0.496413 2.658015 -2.594208 244 235 234
-9.446482 -5.060312 -3.848895 47 46 33
-11.520319 12.696732 -9.462187 136 126 121
-2.128714 -5.083093 -4.051230 172 165 157
1.600557 17.455124 7.114042 21 24 21
-2.091675 -4.897214 -4.047470 79 77 70
-7.927958 13.266680 4.663729 79 73 77
-1.919364 -5.015225 -4.146637 181 179 167
-4.808566 10.627295 3.486114 77 94 88
-2.216841 -4.981296 -5.156631 127 119 108
-4.919006 11.186744 3.302188 69 81 77
-0.598267 0.798798 0.019698 100 93 84
-8.813298 13.696470 3.671117 53 58 52
-1.757514 -4.060715 -5.525668 158 160 147
-6.395431 3.290622 -1.842414 172 179 171
2.377960 11.285544 1.873905 174 166 163
-3.696604 1.776847 -2.214408 66 77 73
-2.872802 1.023655 -0.549248 161 158 151
-2.355968 2.402124 -1.690433 225 208 192
0.689690 6.952965 0.152221 142 164 101
-2.764563 2.692729 -1.655803 251 245 236
-1.043631 1.101791 -0.450508 129 126 121
-1.518304 2.200679 -1.515090 204 188 175
-2.234235 2.881675 -2.017201 75 77 71
1.334144 4.962245 -0.899352 199 200 195
-2.223453 3.094982 -1.910171 197 193 192
0.170209 4.669062 -1.016135 82 107 49
-3.717805 4.584526 -1.112147 32 44 8
0.301415 4.486564 -1.075070 36 63 10
-2.537877 4.431483 -1.311349 63 76 25
-2.605607 1.270518 -1.201940 44 45 37
-4.711610 -8.053134 -4.496124 127 138 126
-0.874197 3.711580 -1.462375 54 79 24
-8.522493 0.984165 0.214042 43 58 30
0.605963 3.731266 -1.519463 202 208 216
-10.193457 -4.722538 -4.757366 90 97 89
0.614465 3.765684 -1.523960 202 208 216
-9.218550 -4.163777 -5.274061 40 41 33
-4.249593 2.409272 -2.247424 165 175 176
-4.382192 -5.770516 -6.419242 109 112 105
-0.608378 3.151433 -1.893553 48 47 34
-2.625191 1.135008 -0.168320 216 203 199
-1.446764 1.678034 -1.898373 155 151 141
-0.764324 1.077081 -0.018740 164 150 137
-3.442637 -2.845454 -5.178490 241 222 205
-1.389203 1.535643 -2.362821 35 40 33
-2.048236 1.810519 -0.397301 229 216 207
1.607313 18.234180 6.541203 43 49 46
-1.853218 1.918620 -0.523207 78 71 63
-1.853218 1.918620 -0.523207 78 71 63
2.937507 12.120052 2.330620 170 164 163
-5.176789 1.836064 -2.601853 135 145 137
1.294420 6.212282 -0.188219 56 71 30
-2.263767 1.938866 -1.915120 177 165 151
-0.440707 4.855090 -0.878695 72 100 42
-1.377136 2.108023 -1.628033 146 130 117
0.993910 4.649580 -0.968933 123 139 103
-3.627977 3.500247 -1.576006 75 94 53
-0.442477 4.074391 -1.308141 92 119 52
-4.135399 4.018130 -1.449011 220 218 219
0.099847 4.173643 -1.251299 11 27 4
-1.512976 2.745040 -1.814649 178 177 173
-3.113870 4.223074 -1.336973 72 93 35
-4.154759 1.760343 -2.569655 78 92 95
-1.817943 2.924927 -2.194669 160 160 151
0.783428 2.958990 -2.434512 201 201 211
-3.006867 4.196259 -1.347463 110 130 77
-2.153315 3.552162 -1.563624 50 69 24
-0.632230 0.663468 -0.067962 207 197 195
-4.729538 -8.564358 -4.276831 64 77 59
0.914002 6.614176 0.092828 80 100 46
-5.055414 -7.955436 -4.533041 42 53 37
1.448733 5.919530 -0.381114 230 231 230
-6.389134 -6.050689 -3.485238 75 87 72
0.323548 4.895492 -0.840800 84 111 45
-10.602644 -8.162297 -5.068428 145 160 150
-0.979110 3.953331 -1.329297 48 74 23
-9.341475 -5.072952 -3.636423 29 30 21
-0.668592 3.410378 -1.722445 228 223 220
-7.158580 -5.932579 -4.225765 166 177 177
-1.175942 1.573550 -2.114442 228 228 223
-8.980481 -4.748351 -4.626837 28 22 10
2.707505 18.949938 6.460404 248 241 251
-2.405444 -5.128150 -3.935334 186 180 168
-2.322229 -5.055555 -4.137799 156 152 140
-0.264865 3.500773 -1.677165 248 247 253
-9.342154 -4.707137 -5.661129 31 34 25
1.400635 10.973804 2.246557 216 209 207
-3.596512 -6.891203 -6.863722 224 213 193
-0.070356 4.903487 -0.872482 90 119 54
-2.766482 -5.565483 -5.676811 122 117 96
-4.345006 3.247375 -1.754785 165 183 183
-0.909685 0.989477 0.243242 245 228 212
-2.456245 2.181948 -1.628424 27 29 17
-8.448993 0.469500 -3.246004 47 56 53
-2.575018 2.208560 -1.742602 192 182 172
-1.533118 -4.136534 -5.447714 143 149 139
-3.610581 2.236589 -2.778599 199 183 174
-2.041544 1.865091 -0.596004 176 167 153
-1.230932 1.141159 -0.894515 36 41 35
-2.373329 1.991236 -1.838913 187 180 170
-2.422355 1.784629 -2.043859 126 122 119
-1.385119 2.083799 -1.824017 189 169 150
-1.406719 1.679738 -1.978871 122 120 108
-0.969895 2.900838 -2.377355 154 151 140
-3.898248 1.668135 -2.667102 226 227 232
-4.632318 -8.704178 -4.481638 128 140 128
0.343626 3.250111 -2.287405 0 0 0
-4.691109 -8.511617 -4.610641 43 50 40
0.459402 3.623776 -1.581275 196 201 214
-9.711486 -5.691369 -4.551548 45 40 34
1.065237 4.124536 -1.309456 195 198 212
-9.711486 -5.691369 -4.551548 45 40 34
-1.962261 1.646818 -2.059705 198 197 187
-2.079588 -5.130915 -3.957531 192 181 172
0.443362 2.965329 -2.453096 251 249 252
-2.208292 -5.102848 -4.612683 65 66 52
1.635102 9.798075 1.505900 212 209 209
-2.348350 -4.960488 -4.646504 188 178 169
-0.640081 0.596697 0.099647 52 48 39
-5.396327 2.014306 -2.162476 105 114 109
1.459627 15.116471 4.816739 122 129 115
-5.071613 1.771951 -2.890359 110 119 115
-2.269814 2.121071 -1.739519 109 100 88
-9.838741 11.811872 2.917258 28 41 16
-1.313441 2.249947 -1.685786 234 216 202
-1.573021 1.082292 -0.012030 103 98 89
-4.927746 1.157233 -0.446611 78 86 75
1.801427 11.588622 2.716282 45 50 26
-5.821537 1.726441 -2.054863 96 105 100
-0.580772 0.817399 -0.222162 81 81 71
-5.093931 1.489126 -2.691306 53 61 48
-5.056674 1.649773 -2.745462 136 149 140
-0.634393 0.799790 -0.277981 89 91 83
-1.905123 1.042760 -2.239834 232 219 210
-10.145679 8.866731 0.889319 124 133 128
-5.409948 3.406051 -1.789674 136 146 137
-2.319445 2.209433 -1.595514 231 215 199
-0.596304 0.868877 -0.426168 182 182 173
-2.345577 3.020212 -1.960195 90 84 78
-5.913658 4.477108 -0.355875 125 134 114
-2.524109 -6.082591 -5.640429 97 95 80
-2.122965 0.989370 -0.891384 126 121 115
-5.723019 2.969810 -2.030993 123 129 125
-2.412610 1.148676 -1.036077 37 38 32
-5.118400 -8.088202 -4.337773 25 36 20
-5.030081 2.559401 -2.287672 38 45 38
-5.800744 1.789835 -2.272117 156 165 160
-5.071863 2.631153 -2.299301 38 45 38
-4.833615 2.823731 -2.057074 28 33 26
-4.968765 2.594112 -2.332248 35 40 34
-1.445900 1.652406 -2.005658 215 198 181
-1.371753 1.969650 -1.599721 123 119 108
-4.182154 2.205941 -2.304762 175 183 185
-7.754925 3.564987 -1.853153 113 123 115
-1.141717 1.851454 -1.962865 237 225 213
-1.255688 2.085546 -1.235815 153 145 134
0.240576 3.469651 -1.988124 45 42 37
-1.830185 3.240783 -1.829337 227 219 210
-1.428962 1.587687 -2.103029 224 220 209
-1.189759 2.445214 -1.641159 238 219 205
-2.263619 1.519707 -2.334942 100 103 92
-0.928758 2.554179 -1.951645 85 85 79
-4.061437 1.096759 -2.643764 77 77 71
-2.026777 3.767409 -1.465036 20 37 8
-2.502754 1.672875 -2.665083 68 70 59
-4.417053 2.899647 -2.022418 172 181 177
0.553936 2.716955 -2.566877 176 176 186
-5.456133 -7.831765 -6.415795 47 54 41
-0.684283 2.228520 -2.801706 236 225 223
-3.363149 -5.754622 -6.250620 114 103 82
-5.408506 -8.313403 -6.525198 22 24 13
-0.516401 2.206769 -2.807431 231 227 218
-0.292061 2.031125 -2.888190 205 204 209
-0.592659 0.689916 0.057526 190 181 171
-5.343921 0.540978 -0.590361 37 42 36
-0.554313 0.752989 0.033234 71 63 53
-5.420393 -8.109851 -4.696436 20 37 21
-0.553673 0.758456 0.035892 71 63 53
-0.679235 0.726256 0.219143 222 209 200
1.394854 14.265887 4.144127 112 133 67
-4.675907 1.244632 -0.037393 231 240 241
-0.630728 0.669983 -0.022179 62 56 51
-2.153039 -5.116825 -4.415608 66 65 60
-9.108152 18.175032 4.870836 44 56 42
-4.272407 -7.460179 -6.592126 147 159 139
-4.993157 4.421566 0.651920 22 41 11
-0.607569 0.975912 -0.021207 202 193 184
-1.061814 1.066279 -0.656946 197 187 177
-3.469548 1.239716 -0.534179 242 243 226
-1.253154 0.993941 -0.721234 132 128 117
-0.645369 1.063474 -0.283960 108 109 104
1.284390 6.717440 0.080997 65 79 32
-1.283841 -3.902517 -5.727228 131 142 126
-2.466790 1.246409 -1.211901 37 38 30
-1.283841 -3.902517 -5.727228 131 142 126
-1.009202 3.648158 -1.465234 45 66 22
-2.529870 -1.570423 -4.681471 152 187 152
-2.729433 2.634605 -1.145063 246 247 249
-0.939277 1.885874 -1.953943 235 237 232
-3.667789 2.657606 -2.063819 61 55 55
-0.737265 1.693260 -3.067572 184 183 178
-0.738795 3.397755 -1.722744 194 193 195
-0.910880 1.937514 -2.865938 169 165 158
-0.831137 3.267814 -1.800507 189 187 200
-0.831582 2.380356 -2.735221 210 201 196
-0.507377 3.292167 -1.772024 183 187 199
-0.076010 1.969692 -2.944831 181 179 182
-2.450587 1.658942 -1.971957 60 53 43
-4.734538 -11.795372 -6.992904 61 71 62
-2.728113 1.591965 -2.145107 163 160 155
-4.870876 1.437865 0.292280 232 251 252
-0.665676 0.897053 0.171438 240 226 215
-0.714148 3.155108 -2.326465 208 199 194
-4.233489 -7.811916 -7.194152 110 117 102
-0.137743 3.133357 -2.355897 226 220 224
-4.314888 -7.104837 -6.888383 89 93 79
-3.691495 1.368807 -2.766558 247 243 242
-2.679624 -5.614866 -5.505460 94 98 83
-3.968109 0.909980 -2.901740 178 167 161
-1.284090 -4.243086 -5.081125 126 125 110
-1.194525 1.548336 -0.231735 247 229 212
-1.468063 1.828250 -2.894993 65 62 53
-1.602470 1.709916 -0.294611 206 196 184
-2.319402 1.739269 -3.064453 159 154 148
-1.743523 -3.995916 -5.569139 156 162 150
-1.358873 1.822987 -2.905546 65 65 57
-5.174450 2.786204 -2.086391 138 145 138
-1.409759 2.144767 -1.385861 197 185 173
-2.214749 1.589262 -3.090662 78 103 74
-0.553571 0.530919 -3.632739 166 201 167
-2.401260 3.088462 -1.919827 191 192 194
0.349683 14.607223 5.775238 35 31 28
-0.975562 2.656057 -1.627782 242 233 224
-0.611431 0.660923 0.116086 218 205 189
0.906612 0.784547 -3.488206 194 189 185
-0.704804 0.974233 -0.453487 11 18 10
-1.884773 3.185409 -1.854588 208 205 200
-1.884773 3.185409 -1.854588 208 205 200
-1.989370 0.915670 -0.594511 199 185 176
-0.472172 1.957400 -2.925928 252 240 232
1.578089 8.020803 0.738018 233 226 220
0.756703 1.150888 -3.314552 141 146 155
-0.961308 1.332736 -0.678499 65 64 42
0.877949 1.115449 -3.362262 213 214 221
-5.207977 4.345534 -0.788448 15 26 12
0.883269 1.173649 -3.337500 167 168 173
-1.029294 1.151460 -0.774524 97 99 92
0.037308 2.020051 -2.855174 205 203 206
-0.105397 2.488242 -2.634548 203 196 188
-5.043534 -9.002045 -4.208718 125 138 128
-0.817928 3.121625 -1.910981 68 61 55
-4.793077 -8.291286 -4.418217 123 138 124
-0.688993 3.110773 -1.898063 70 65 61
-2.193226 -5.291353 -3.741628 204 195 190
-0.556771 0.745804 0.102493 228 217 205
-1.796869 1.569268 -2.115678 213 210 201
-1.374994 1.169564 0.114990 227 210 194
-4.163249 1.174880 -2.610231 173 179 177
-2.474162 1.681731 -0.307939 247 239 224
-2.442533 1.545288 -2.377938 121 124 113
-1.434079 1.608817 -0.199530 82 71 60
-4.103078 1.241915 -2.697813 171 173 170
-1.540793 -4.212071 -5.266695 94 104 98
-4.041769 1.034399 -2.765042 174 161 148
-4.206568 2.423584 -2.211292 154 169 170
-4.080256 0.958107 -2.799323 145 147 144
-2.355622 2.354061 -1.667799 185 173 159
-3.642123 1.930516 -2.946692 185 172 156
-4.535010 3.416647 -1.763139 162 172 171
-3.697422 1.614705 -2.968325 53 49 38
-4.409974 3.751243 -1.647616 160 170 172
-2.441613 1.827976 -2.943787 82 79 72
-1.342130 2.494164 -1.646237 242 240 232
-1.969750 2.810192 -1.887753 92 95 88
-3.646678 0.723907 -3.133688 73 63 54
-0.918352 2.444043 -2.436257 108 107 103
0.500532 2.367115 -2.760221 164 170 182
-2.461417 3.805779 -1.458071 125 146 88
0.495163 2.351729 -2.752676 164 170 182
-1.874801 3.693769 -1.556230 48 64 21
1.782582 15.210296 4.525006 126 141 74
-1.017183 3.119072 -1.869022 173 175 180
-4.653222 1.590477 0.134427 162 195 204
-4.993634 -8.447864 -4.301897 37 51 36
-0.970620 0.886543 -0.073552 28 28 18
-4.502382 -11.832166 -6.628410 74 83 75
-2.418928 0.908920 -0.416450 219 210 201
-1.003106 0.864450 0.347075 187 172 163
-2.801333 1.062354 -0.557166 105 100 89
-8.928756 -4.922008 -4.697243 126 136 131
1.377853 6.968603 0.231105 240 235 218
-1.673852 -5.059154 -3.898520 130 126 123
-1.576906 1.007417 -0.831845 86 82 73
-0.871558 1.013714 0.183568 226 211 192
-4.755666 3.274400 -1.818798 169 180 172
-1.170426 1.106413 0.192445 235 219 204
-0.379590 3.667338 -1.489766 83 102 57
-2.049015 1.805954 -0.401299 226 218 209
-1.505087 -4.016176 -5.538980 83 93 85
-1.341655 1.530151 -2.311326 87 94 86
-2.130857 1.865495 -0.454208 184 179 175
-3.679527 1.927894 -2.896835 55 48 40
-1.261848 -3.477396 -5.538845 131 179 129
-4.128106 1.134822 -2.885305 60 64 64
-2.664664 2.846686 -1.875681 106 106 98
-4.093147 0.891042 -2.826588 23 21 16
-3.879430 3.847029 -1.345224 205 205 207
0.793288 2.828831 -2.483703 181 179 190
-4.559865 4.182303 -1.615726 78 83 89
-0.395867 2.354521 -2.739469 200 200 199
-1.822917 2.786356 -1.896604 176 179 172
-0.395867 2.354521 -2.739469 200 200 199
-1.817573 2.788344 -1.890373 176 179 172
-0.958523 1.811322 -2.814466 49 52 45
-3.282716 3.918575 -1.437523 92 117 60
-1.428921 1.853183 -2.956416 6 6 0
-2.013912 3.606304 -1.524440 48 66 24
-0.198603 2.168854 -2.829447 204 196 194
0.082536 1.884394 -2.956257 212 212 210
-2.594249 1.343685 -3.222757 118 157 120
-4.654116 -8.441330 -4.576249 40 52 41
1.385352 15.224455 6.574452 35 37 32
-4.945814 -8.809159 -5.220993 62 69 61
1.491137 16.439571 6.319850 31 35 27
-4.644211 -8.803389 -5.236809 52 59 51
-0.676684 0.608408 0.097488 45 45 39
-1.918011 -4.186018 -5.244167 96 105 100
0.800214 6.335052 -0.092394 128 146 88
-1.698934 1.749305 -0.288484 214 205 196
-5.067482 2.664686 -2.147296 106 111 104
-9.270839 1.819019 -2.526382 73 79 75
-1.568092 1.545987 -2.329144 85 93 82
-1.147195 1.644067 -0.309817 227 210 192
-0.589639 2.315663 -2.762067 244 236 225
-1.733955 1.844534 -0.439489 43 47 40
0.533938 2.572247 -2.642839 201 201 211
-5.117676 2.874517 -2.046163 140 150 141
0.494691 8.616323 1.070031 93 113 60
-0.538158 2.590525 -2.632025 207 201 205
0.409256 5.454247 -0.538143 78 101 48
-1.890650 3.891826 -1.462491 219 210 160
-4.640308 2.860849 -1.984191 94 101 94
-4.506286 -8.637872 -4.675154 50 59 49
-4.572152 2.752350 -1.970342 94 101 94
-1.430552 1.713002 -1.704790 187 175 166
-3.609868 3.266198 -1.820033 206 201 188
-1.388779 2.106063 -1.753374 80 75 71
-2.803246 3.820554 -1.513126 68 94 47
-1.499067 1.692605 -1.828764 72 72 60
0.703800 0.974762 -3.433005 239 221 211
-0.588889 2.742081 -2.554486 251 240 236
-9.565209 -5.527910 -4.134507 128 142 136
-3.987285 1.016382 -2.943760 213 195 187
-2.444036 -5.896007 -5.488219 78 79 61
0.495722 2.938777 -2.446619 243 235 233
-1.917243 1.569609 -0.165235 254 239 224
-4.107707 0.831243 -2.949309 216 202 192
-5.794282 2.500188 -2.013549 117 126 123
1.400635 10.973804 2.246557 225 214 210
-2.662920 2.766847 -1.742090 117 117 109
-2.734473 1.161423 -0.333731 232 221 217
-2.537429 3.321305 -1.765118 168 174 181
1.042235 8.834078 1.347884 38 56 16
-9.811011 -6.601635 -4.215530 20 29 17
-5.041869 0.975878 0.301390 2 6 6
-1.419517 1.693106 -1.979496 125 122 107
-2.909764 2.899063 -1.798634 169 166 160
-5.226661 -8.826619 -3.969347 124 137 128
-2.626843 1.188875 -3.201431 83 86 67
-1.980018 2.887805 -1.840191 89 92 83
-0.732018 0.659315 -0.046061 29 31 28
-1.976745 1.388625 -0.252509 239 223 208
-0.737918 0.678650 -0.041027 29 31 28
-0.706656 1.802274 -3.018685 205 210 219
-4.592287 1.831638 0.151054 235 251 253
-4.841427 1.258330 0.166261 234 249 250
-0.948384 3.333636 -1.751439 177 172 175
-0.699049 0.839118 -0.304982 36 42 38
-1.832206 3.871619 -1.486017 184 165 115
1.038570 3.247474 -2.270244 204 205 210
-3.809399 4.027340 -1.288219 230 229 229
-4.309619 1.380324 -2.605553 159 168 163
-8.863991 1.603819 -2.322715 98 107 104
-2.423137 1.004313 -0.600834 112 107 101
-4.049874 -3.083771 -0.942117 0 54 119
-1.920342 2.131362 -1.701960 233 220 211
-3.696450 -12.423552 -7.106875 16 19 1
-4.963616 -12.421586 -7.372776 61 73 63
-0.349926 2.263098 -2.758434 201 199 200
-11.119476 -8.916930 -6.063214 29 40 26
-0.782611 -5.556551 -3.598153 152 146 132
-9.251799 -5.487036 -4.308553 13 21 17
-0.768949 3.193482 -2.099858 61 56 50
-2.235998 -5.220656 -3.898763 241 236 231
-3.147137 1.492214 -3.068537 214 197 187
-1.152493 -5.007099 -4.067006 59 64 60
-2.004087 1.434076 -0.291981 216 206 200
-1.152493 -5.007099 -4.067006 59 64 60
-4.818892 1.352979 0.200168 228 243 246
0.039240 3.657773 -1.406707 58 80 32
-3.316344 -6.416959 -6.665133 230 218 204
-2.054935 0.908823 -0.581196 188 184 174
-0.563443 -6.187219 -6.259705 137 158 94
-1.479689 0.944039 -0.579445 141 138 131
-2.095962 -4.621794 -5.117390 230 220 209
-2.215265 2.099974 -1.822000 192 189 180
-0.512144 -6.097315 -6.495217 211 195 170
-0.278468 3.297100 -1.768832 185 187 197
-1.769294 -4.136900 -5.342776 169 177 166
-3.469548 1.239716 -0.534179 248 236 222
-0.597930 0.604156 0.197036 225 218 210
-1.578053 -3.987876 -5.593932 128 136 125
0.928292 15.536828 4.713859 109 119 108
-0.755457 -4.169965 -5.667064 158 152 140
-0.524925 0.777424 0.124535 219 215 206
-0.987285 -3.894487 -5.708297 141 144 133
-0.547568 0.732759 0.083365 62 53 38
-1.039108 1.420214 -0.337716 201 180 166
-0.548401 0.724279 0.082248 62 53 38
-2.506707 1.768128 -0.492585 79 80 72
-1.390055 2.046437 -1.116692 151 141 132
-4.775095 1.074202 0.012706 240 253 255
-2.562810 2.261553 -1.763060 225 213 199
-10.636842 11.324712 2.479938 32 35 26
-2.562810 2.261553 -1.763060 225 213 199
0.180251 11.475265 2.495034 124 149 82
-1.270867 1.730875 -1.937867 222 201 182
-4.762472 4.482405 0.569909 59 82 38
-1.538372 2.229227 -1.677514 124 117 107
1.279935 11.319919 2.409253 202 210 186
-2.428551 2.668083 -1.715477 254 252 246
2.765609 11.812354 2.152722 143 136 128
-1.638814 2.726723 -1.748233 118 121 114
-2.538549 0.905663 -0.414800 220 215 212
0.921368 0.988924 -3.472178 165 163 171
-5.594662 4.176506 -0.059162 31 49 22
-1.484722 2.785085 -1.822088 158 163 157
2.257846 10.319716 1.393695 120 116 110
-1.759888 2.862264 -2.061067 74 79 75
-2.185983 1.013340 -0.818928 86 83 77
-1.337142 2.837194 -1.972403 163 160 151
-4.871988 4.275924 -0.895454 38 49 33
-1.201892 2.844755 -1.994602 122 122 114
-1.505302 1.387243 -1.307862 73 78 78
-3.398786 4.191975 -1.270988 49 67 28
-1.343752 2.111271 -1.700716 65 59 45
0.206311 1.933661 -2.913094 232 220 220
0.430924 3.554029 -1.613315 192 189 196
0.593273 1.717706 -3.073928 189 184 191
0.778432 3.679343 -1.610074 75 74 69
0.509350 1.780678 -3.073541 198 190 192
-4.424161 2.407143 -2.255148 184 193 190
-2.635206 3.849716 -1.467858 64 89 34
-1.548969 1.746144 -2.005139 160 156 147
0.706694 1.706980 -3.090572 176 174 179
-1.576753 1.654065 -2.062186 199 189 181
-0.596432 2.590512 -2.634520 241 229 224
-0.992843 3.217863 -2.247808 25 21 12
-1.909213 3.713351 -1.534014 118 129 88
-3.876946 1.096388 -2.539372 167 182 177
-2.788871 4.359201 -1.114701 63 84 26
-1.292179 1.561628 -2.237110 25 28 21
-4.115932 -12.246180 -6.889843 108 120 104
-4.124998 1.058839 -2.631348 71 77 72
-3.535822 -12.115913 -7.113237 95 107 79
-4.511255 -11.671884 -6.890450 99 109 100
0.836594 2.629150 -2.578807 221 224 233
-4.990495 -12.445554 -7.609905 68 75 67
-4.078373 0.554219 -3.192800 20 20 18
-11.339681 -5.619947 -4.049901 42 54 32
-0.804310 -5.550056 -3.715009 172 164 153
-1.015643 1.719889 -3.064695 195 204 187
-1.538987 -5.195497 -3.952310 224 214 212
0.354500 1.760888 -3.010553 184 178 182
-1.822002 -5.128767 -3.932904 228 221 215
5.441397 28.283239 10.930397 87 78 61
-1.187106 -5.041358 -3.986045 148 150 145
-4.976541 1.595910 0.348025 230 249 247
-1.086487 -5.064066 -4.073406 69 69 64
-0.959254 -6.794502 -5.806264 198 221 148
-5.600451 11.813366 3.276539 59 72 63
-0.931794 -6.738976 -5.873158 40 53 14
-4.812709 1.158483 0.110706 241 255 255
-2.214028 -6.786041 -6.358920 32 30 4
-10.837000 11.981260 3.104962 37 45 30
-2.116295 -6.112856 -6.193361 41 52 18
-4.773836 1.484123 0.193081 232 253 252
-0.994516 -6.180115 -6.154624 140 156 104
-4.667408 1.723588 0.199316 129 164 176
-0.652934 1.073812 -0.278194 108 108 103
-1.157638 -3.975024 -5.528773 129 136 126
-10.899022 11.814511 2.416905 17 16 11
-0.701727 -4.882864 -6.432866 228 212 199
-0.031072 11.732847 2.680615 78 103 36
-0.483595 -4.562890 -6.162224 230 223 217
-1.406246 1.545524 -0.119149 245 231 218
-2.694599 1.783502 -0.533841 88 86 71
-0.587037 0.812886 -0.285761 73 77 63
-2.339001 1.811836 -0.820982 66 62 52
0.852676 7.788104 0.653535 49 68 23
-5.007427 2.190389 -1.585447 84 94 83
2.499723 9.503836 0.956887 182 173 168
-4.234868 1.581863 -2.668718 162 174 173
-0.919889 1.361897 -0.624252 197 190 163
-4.072423 2.795505 -2.307587 249 245 246
-5.961185 4.523031 -0.631705 67 83 54
-1.548931 2.319242 -1.721837 232 221 212
-5.961185 4.523031 -0.631705 67 83 54
-3.605378 2.742835 -2.571058 167 158 151
-2.365674 1.115840 -0.987004 64 66 62
-3.654335 2.726549 -2.629058 167 158 151
-0.263348 5.656002 -0.493362 56 79 27
0.927951 0.886268 -3.460294 170 162 160
-4.128851 4.153484 -1.385324 222 220 221
0.857428 0.936079 -3.472364 154 153 159
-5.086982 3.289026 -1.804795 177 187 176
-0.287402 1.606830 -3.109102 134 173 134
-0.884195 3.148755 -1.869525 220 213 205
1.007380 1.102099 -3.393578 196 196 206
-1.365330 2.839286 -1.987114 162 159 150
0.879482 1.405513 -3.116405 177 175 178
-1.061833 1.553994 -2.386376 80 87 79
0.979669 1.291510 -3.301877 168 168 176
-4.633609 1.008137 -3.048782 128 134 130
0.314084 1.855236 -2.940239 242 235 229
-1.413428 1.772206 -2.765257 25 30 23
-0.187573 2.375045 -2.863363 193 181 175
-1.408257 1.746267 -2.749450 25 30 23
-0.238295 2.516632 -2.720701 231 222 217
-1.003035 2.948399 -2.521476 118 106 99
-4.179142 0.579792 -3.126983 43 35 32
-3.121175 4.441519 -1.107935 100 121 57
-0.614782 2.071862 -2.875704 242 239 235
-0.822340 -5.787726 -3.322617 211 196 184
1.066364 2.375467 -2.722725 231 223 220
-1.857275 -5.492660 -3.571774 103 94 85
-4.030270 0.533646 -3.247269 103 105 106
-1.927031 -5.689589 -3.700746 103 94 85
-0.733113 1.714109 -3.051511 203 202 197
-2.136675 -5.818171 -3.834494 248 240 229
0.820544 1.871470 -2.962974 201 199 204
-4.898415 -4.729225 -3.722279 63 70 63
0.814102 1.855744 -2.959227 201 199 204
-0.900790 -5.170852 -3.883173 198 189 184
-3.636847 11.738314 4.486188 153 167 160
-1.662631 -5.047246 -3.890212 122 115 109
-10.711481 12.290711 2.753885 19 25 9
-1.501534 -5.209177 -4.402642 71 69 56
-2.225179 0.987264 -0.218967 247 238 221
-5.037907 1.729788 0.598778 184 197 190
-9.877309 8.935901 1.037329 110 120 111
-0.904805 -6.395173 -6.080267 205 227 153
-2.170866 0.927667 -0.422135 203 193 183
-0.712122 -6.509534 -6.218578 205 230 154
0.559438 7.122342 0.262538 171 191 134
-1.392688 -4.980477 -5.152543 189 186 171
1.353770 6.403531 -0.053328 216 210 207
-0.903738 -4.172352 -5.193204 156 162 150
-1.462896 1.371170 -1.345121 85 89 78
-1.051131 -4.159304 -5.201550 53 58 46
-2.397364 1.557709 -1.770869 130 129 124
-2.580693 1.779489 -0.494029 171 168 154
-0.990202 3.151706 -1.782767 187 189 186
-1.412286 1.857207 -0.563674 77 77 67
-0.961551 2.155741 -1.843117 249 247 234
-1.195388 1.821360 -0.665409 109 106 97
-0.785403 3.214940 -2.077819 57 54 47
-2.595029 2.263674 -1.275764 242 241 239
-4.166580 1.650011 -2.640821 127 136 145
-1.430014 2.255387 -1.605032 230 212 198
-4.099485 1.238120 -2.697830 157 165 156
0.726035 1.362992 -3.260272 159 155 165
-1.186636 2.863475 -2.099952 104 104 96
-1.933786 1.669752 -2.609790 94 100 89
-1.186636 2.863475 -2.099952 104 104 96
-2.546853 1.837558 -2.987854 21 17 6
0.250308 1.876744 -3.006568 241 224 216
0.894378 2.333968 -2.757367 201 200 208
0.919159 1.496544 -3.227069 240 234 227
0.602865 1.730167 -3.008276 197 204 207
-1.478396 3.106199 -1.931492 228 219 210
0.596517 1.593036 -3.075879 6 21 7
0.223991 1.960233 -2.976663 215 202 194
-0.633892 0.497489 0.198951 225 215 205
-0.954575 2.708859 -2.429040 172 169 159
2.168794 15.433740 4.787734 118 138 70
0.263115 2.053585 -2.903725 243 229 218
-1.040854 0.798339 0.124727 150 146 137
0.327690 2.047359 -2.954665 231 224 216
0.603635 14.696233 4.140067 174 183 166
-3.529386 -12.538325 -6.484173 16 22 10
-0.597834 0.770368 -0.231930 65 71 57
-3.655669 -12.402721 -6.761055 16 17 9
0.146872 6.498327 -0.146678 61 82 26
-4.505080 -12.234333 -7.080762 48 58 49
-1.114686 1.215490 -0.866090 48 53 44
