ply
format ascii 1.0
element vertex 1212
property float x
property float y
property float z
property uint8 red
property uint8 green
property uint8 blue
end_header
-4.057396 17.622492 4.378599 44 24 9
2.000249 21.230833 3.751206 17 10 7
-2.565634 17.130718 4.381646 133 110 92
-3.441076 18.749556 6.747382 8 8 0
0.806820 18.150150 4.799065 20 16 15
-6.417704 20.028276 -5.129185 196 191 180
-5.155107 21.408047 -4.152077 125 127 113
2.339967 21.679375 -0.807045 155 140 124
1.720822 20.888308 -0.544462 196 150 127
1.196567 19.313354 3.487350 82 59 48
0.672671 17.711634 3.772898 70 53 41
0.228491 18.201914 4.097306 135 116 102
-0.301964 18.311956 4.191532 158 122 102
0.808936 21.160254 -5.806998 197 178 164
-5.709334 24.483137 -5.784739 176 170 158
-2.271065 17.646055 2.551270 185 137 117
-3.429097 17.989290 2.836570 74 58 52
1.574554 19.700821 3.424557 14 3 0
1.008978 19.257723 3.796194 91 64 49
-1.784502 17.232103 4.175510 74 61 59
-1.542941 17.347681 4.589873 37 31 27
-1.542941 17.347681 4.589873 37 31 27
1.013737 18.829390 5.419456 38 35 28
-5.906123 20.741690 1.345705 198 148 122
-3.433625 18.409180 3.856975 218 170 138
1.038260 19.529972 2.165473 212 167 141
-1.817678 17.612783 -0.861876 250 200 173
-4.629925 19.533379 6.456625 123 115 94
-0.263612 20.285883 -6.163152 233 213 198
1.128767 17.771233 3.642518 9 5 2
0.112686 17.574617 3.845731 153 118 97
-0.773296 18.066580 4.586435 127 98 83
-4.745253 20.939156 -6.883150 210 196 183
1.182947 21.285517 -5.951058 241 227 214
-6.558763 22.127150 2.025587 208 158 135
-1.484063 17.294456 4.382092 56 47 42
1.177166 19.123899 -1.693047 143 129 114
-5.609449 21.937275 0.189491 223 172 156
-0.374902 18.170872 1.786590 54 31 23
-5.544505 18.752466 2.725400 23 17 8
-4.006866 20.439386 7.180614 112 106 82
-1.364999 19.618420 -6.246025 190 159 139
0.134941 21.311991 -6.048849 230 203 182
0.921593 21.364529 -5.686769 214 196 184
-5.867812 23.552235 -6.010370 178 168 158
-6.308456 24.064360 -5.967194 177 170 160
1.015632 22.321316 -4.867296 156 124 102
-6.399894 22.259691 0.589714 206 168 152
-5.729840 21.888075 1.057813 182 134 113
-0.570282 18.114893 1.845068 178 131 111
-4.477889 18.640867 2.792124 165 129 103
1.058029 18.171846 4.413709 20 16 15
-0.147595 17.504824 4.735264 22 13 14
-0.353365 20.379072 -6.383545 252 234 222
0.350477 20.839926 -6.030187 245 226 212
0.503429 21.026890 -6.063720 203 184 170
-5.663959 23.468140 -5.668872 179 167 155
-2.075661 17.740963 -1.674917 167 88 93
-2.147625 17.687038 -1.498461 147 85 83
-0.694012 18.268827 1.300935 177 124 106
-2.854346 18.110624 1.854350 178 133 114
-0.018261 18.170338 2.143361 242 192 167
0.730585 18.424747 2.501865 164 131 112
-2.122466 17.748274 2.413147 187 142 121
-0.280509 17.681042 2.817083 182 157 148
2.072274 18.581390 3.859740 121 113 94
0.734092 17.850368 3.940890 75 70 67
1.495808 18.171129 4.114674 35 29 26
-1.369325 17.426884 4.124279 134 105 99
1.727480 18.979349 4.882858 125 119 97
-1.845049 17.178459 4.363035 81 71 67
-3.934991 17.557959 4.483959 42 22 11
-1.326433 17.235298 4.620231 44 33 27
-0.564081 17.282114 4.812748 12 4 2
-2.486977 17.350353 4.876638 56 53 49
1.098822 18.272751 5.419578 105 96 79
-2.296121 17.461559 5.365172 24 22 23
1.257770 20.481573 6.606004 97 89 68
-3.566444 18.041241 5.890324 28 27 25
-3.290197 18.186413 6.111632 46 45 43
-2.487803 18.170088 6.403239 25 25 23
-2.216592 17.389832 -0.115062 172 129 108
-2.175540 17.528809 -1.131549 206 154 133
-0.359679 19.071798 -5.196950 92 78 68
-2.992214 17.179493 4.251442 79 55 39
-2.253808 17.681587 2.552298 199 153 132
0.501216 21.158014 -5.497714 187 152 130
2.377177 22.359510 1.076849 224 171 154
-3.490013 18.264378 1.178570 141 101 82
0.513319 20.912905 -5.749236 203 186 174
-0.806468 18.063528 3.502017 254 203 182
-5.394623 20.282530 4.249171 7 3 2
2.131670 19.433060 3.271295 163 157 141
-2.273015 18.446688 4.012611 0 0 0
-4.043761 18.054749 4.690743 37 17 8
-4.152487 19.923254 7.208377 137 129 108
-5.632681 21.818432 -0.445511 228 172 154
-3.588870 20.759388 -5.583010 167 131 109
1.771321 22.573061 -5.111855 207 193 180
2.240396 21.039801 1.126392 247 185 172
-4.850103 20.140459 -5.847186 0 0 0
2.473443 22.678280 0.636205 181 104 86
-2.688185 19.710905 7.264960 5 4 0
2.307605 20.849007 3.114898 156 153 138
-0.828729 20.470093 -6.008797 250 213 187
0.820392 17.789635 4.090334 65 64 62
-5.868328 22.053976 -6.737837 182 168 157
1.537731 22.193363 -5.296768 214 195 181
1.089126 17.888426 3.376590 22 12 8
-5.657665 23.362350 -5.738527 157 147 135
2.622763 23.319658 -5.340438 154 151 142
-4.480835 23.581495 -4.472077 146 119 98
-5.556030 20.417891 1.229570 180 142 121
-6.654173 22.447428 1.595790 203 132 116
-6.527742 23.910652 4.735613 118 110 97
-4.142708 17.703680 4.406403 101 79 65
-4.218968 17.772444 4.405833 63 39 14
-4.296192 17.849533 4.435791 126 104 82
-1.839286 17.259052 4.876899 24 19 16
-4.292453 21.347975 7.262740 129 122 104
0.205662 21.082535 -5.762711 195 163 150
3.054883 22.853085 -6.076775 233 223 211
0.475925 21.045843 -5.464137 187 152 122
-5.219572 21.298065 -4.790774 153 143 133
-2.967950 18.379578 1.426784 211 163 149
-0.202602 18.363968 1.738991 43 30 28
-6.085646 21.906282 1.467447 204 150 124
1.094226 17.974218 3.531205 55 50 47
0.293071 17.544441 4.055223 78 68 66
1.025423 18.266455 4.248619 38 37 35
0.557759 18.026510 4.284732 53 45 41
0.976509 18.076258 4.367002 66 62 59
0.177112 17.505686 4.337696 83 77 79
-0.262097 17.330013 4.360561 92 82 78
1.475759 18.138510 4.621893 108 101 91
0.072930 17.573206 4.469062 45 41 42
-3.442305 17.597757 4.577340 94 63 42
-4.239873 17.909565 4.604824 28 9 3
-4.541193 18.066004 4.630860 31 20 15
-1.379193 17.311810 4.735285 49 42 36
0.417336 17.832285 4.935155 49 44 40
-1.466504 17.177450 4.808369 26 25 23
-1.659775 17.137394 4.860156 48 40 37
-2.523706 17.593273 4.966325 30 29 25
-1.730052 17.445873 5.011299 42 35 32
-1.529794 17.330893 5.128495 9 4 1
-2.662605 17.097668 5.100206 4 3 0
-0.462854 20.704691 -6.168087 169 133 107
1.617816 23.315147 -4.863787 200 185 174
-1.680798 17.252649 4.770844 29 24 21
2.958334 23.080700 0.160098 213 175 157
-0.197360 17.588249 4.890005 17 12 10
0.064390 17.612062 4.943002 44 39 40
-1.040111 17.194038 4.287704 41 27 22
-2.952661 17.188986 4.303928 126 102 87
-0.427587 18.036949 2.422614 174 137 114
-4.656224 18.513374 -0.588041 161 123 102
-1.701696 20.478025 -5.820350 234 193 165
-4.850284 23.710474 -5.366435 20 3 0
-4.850284 23.710474 -5.366435 20 3 0
-3.309382 18.143494 1.015298 228 176 152
-5.968432 22.022934 5.468722 141 134 114
-5.332380 21.390697 -0.709970 217 171 148
-4.406282 18.127079 4.612709 21 7 4
0.201584 17.761911 5.068530 17 8 9
11.959333 55.135818 -15.870813 139 137 125
-5.090714 19.833101 3.490315 79 57 43
-6.443387 22.610310 0.916970 205 150 130
-6.416585 22.479866 0.918887 205 150 130
-5.814567 21.283642 1.910288 120 113 94
-3.896403 17.803720 4.636715 72 56 41
-0.721226 17.464851 5.031500 9 4 1
-4.601978 23.276772 -5.188761 146 117 99
1.408363 22.989679 -4.622705 177 164 155
-2.076829 17.990437 -1.836495 219 138 144
-3.980003 17.564465 4.452607 72 53 39
-2.351667 17.284523 4.856504 59 52 49
-1.824562 17.322514 5.189296 39 38 36
-3.179389 17.828428 5.591932 29 28 26
-5.606219 23.517559 -5.933835 184 172 158
-5.530429 22.839748 -5.670178 184 172 158
-5.676894 23.706932 -5.739516 182 172 162
0.575591 14.683683 -0.537680 163 159 147
-3.044200 18.215439 1.424066 212 164 150
-2.735934 18.285498 1.474744 202 154 137
-0.622923 17.773773 2.499623 116 87 70
-0.620396 17.757330 2.505246 116 87 70
0.405218 18.210804 2.582786 128 101 91
-3.570200 18.117134 2.777607 108 89 82
-3.547687 18.044096 2.781277 108 89 82
-2.331054 17.490591 4.897243 59 53 55
-4.883436 19.679245 3.161925 175 135 109
-3.884019 17.598984 4.571069 40 27 22
-4.554946 19.374809 4.478699 49 31 17
-5.853853 22.396929 0.522424 235 194 176
5.800044 22.883186 -6.432600 153 154 146
0.341596 18.000254 2.095822 227 176 147
-6.424484 23.318441 -5.969360 191 185 173
-0.303147 17.569654 5.095051 14 10 7
-1.466591 17.392307 -1.097742 247 191 171
-1.071258 17.467348 4.908123 22 11 7
-1.034896 17.712599 5.443057 2 2 1
-0.567505 17.139105 4.128925 125 93 78
-1.730415 17.207827 4.338398 111 101 99
-1.876333 17.183294 4.485538 54 45 45
-3.339917 17.453447 4.663405 34 16 6
-4.226872 18.172005 5.207065 30 25 22
-4.217624 18.134598 5.193942 30 25 22
-2.479364 17.617094 5.342669 8 6 7
-1.834736 17.572546 5.541724 31 29 30
0.888698 17.685347 3.661100 98 75 63
-1.540238 17.433619 3.264144 196 160 142
-1.447240 17.251532 4.749799 84 77 74
-3.136646 17.515835 5.077315 49 47 46
-2.287828 17.878916 -1.629907 136 76 76
-3.025784 20.685955 -5.591149 127 105 89
-1.114802 17.638762 4.869603 77 61 49
-7.966063 23.857840 -6.787760 197 194 185
-0.650140 19.815231 -5.103183 249 205 178
-4.837193 21.076149 6.954017 139 131 110
-3.330385 20.101471 7.582327 138 130 107
1.810525 21.903494 -6.233960 240 227 218
0.765161 22.989845 -4.833468 227 186 158
1.075546 20.814476 -5.762630 242 226 213
3.436236 22.011400 -5.349584 143 140 131
2.484629 21.868893 1.705750 246 189 171
0.850649 18.151312 3.618147 87 70 57
-0.632356 19.026169 -5.199306 247 207 178
2.008729 20.135042 2.649326 158 150 137
0.348100 17.447943 3.720636 167 131 102
-1.803716 21.255491 8.079728 125 117 96
-5.795935 23.498905 -5.801413 160 148 136
-4.608094 23.625902 -4.534076 173 154 139
1.756351 18.358404 3.926373 42 37 30
0.387923 17.620609 4.432097 37 33 31
-0.100667 17.548937 5.244562 51 45 45
-1.822426 21.407106 8.033793 120 112 91
-0.423926 20.698139 -6.149645 182 149 130
-5.940284 22.609308 -6.291542 160 146 133
-5.502710 21.718725 -5.438934 163 150 141
-5.878965 23.437363 -5.994652 186 174 162
-1.521553 17.403221 -1.213776 205 144 130
-2.895859 18.328209 1.514691 186 146 135
2.093733 21.240305 1.930953 69 53 40
-6.824286 22.577778 1.700539 178 137 119
-3.235911 17.284157 4.379580 96 64 43
-4.497978 19.769989 4.706958 90 69 52
-3.730940 17.870939 5.191785 49 39 35
-7.392349 23.204426 -6.418207 196 193 184
1.637586 23.203541 -4.911336 138 122 116
-0.494354 17.846041 -5.011302 88 72 60
-3.171860 17.283003 4.482547 117 92 76
-4.736335 22.964437 -4.851694 80 65 57
-3.593939 18.387981 0.066169 252 205 187
0.958864 22.478266 -4.649318 213 176 148
-1.447601 17.686258 0.929234 246 190 165
4.583035 23.088547 -6.554405 235 227 218
2.115777 21.400585 -4.394758 165 167 153
-2.213731 21.315168 8.105070 129 122 100
0.075877 17.535877 4.746222 31 22 22
0.905999 20.876242 -6.228567 242 228 217
-5.833326 22.111454 0.911089 153 94 75
1.389251 24.971167 -5.154025 185 152 130
0.349372 20.875240 -6.268006 237 225 213
2.161695 22.742743 -5.296753 210 202 192
-0.842305 17.751099 -0.307029 205 143 120
-0.804011 17.346956 4.938443 48 40 37
-6.974499 25.929512 -6.647944 126 126 114
-6.818963 22.899502 1.239291 202 145 130
-2.790945 17.815292 2.530251 112 77 66
-2.952042 17.175047 4.305667 142 109 92
-4.368134 18.617899 4.630698 51 37 29
-0.835150 17.548824 4.925909 37 26 22
-0.677055 17.429924 4.917586 47 42 38
-0.670336 17.465372 4.921504 47 42 38
-1.408808 17.881626 5.975778 22 21 19
-3.643071 20.804190 7.438990 79 72 62
1.286750 18.795187 5.382277 11 4 4
0.987200 22.150276 -4.807407 152 117 97
4.010070 22.608536 -5.862829 135 132 122
0.247191 17.557220 4.312706 77 68 64
-4.541354 18.692080 0.002463 177 132 109
0.081425 20.650005 -5.437442 251 211 182
-3.089613 17.270855 4.303559 176 142 119
0.248357 18.233908 0.235718 251 208 191
-2.328763 17.728899 0.035022 193 137 120
-2.328763 17.728899 0.035022 193 137 120
1.305098 19.909859 1.607061 227 180 150
-2.469995 20.192776 -4.749372 174 136 115
2.001987 21.138584 2.967946 28 17 11
3.135976 24.276669 4.325703 177 171 157
-3.520351 24.407282 -7.647314 0 0 0
-0.082313 18.015947 2.207125 223 176 148
-5.210590 19.925381 0.623502 160 124 102
1.867968 18.981878 3.942383 46 42 41
-3.953097 23.451452 -6.792621 0 0 0
5.693404 22.046764 -5.802886 141 144 137
1.804467 21.289278 -0.898632 174 136 116
0.843063 20.724621 -6.123939 230 222 211
-4.783303 21.855303 -6.196118 0 0 0
-5.649750 21.047827 1.043208 153 100 84
0.129498 17.540020 3.959275 142 115 98
-3.447908 17.914259 4.997261 28 19 11
0.088412 19.355333 -5.386440 240 227 218
4.346457 22.810848 -6.015911 214 208 199
5.285610 24.685310 0.303333 186 182 170
-3.224236 18.182594 2.009561 206 160 140
-4.199565 17.670883 4.390260 54 35 20
-2.058546 17.331659 4.645946 37 34 33
-3.877415 18.656536 5.046838 59 48 42
-0.163400 17.633030 5.190054 17 17 17
0.841289 19.281061 7.008183 141 135 119
6.587010 26.125668 -7.613483 140 141 135
1.170270 23.131628 -4.656801 172 140 125
2.815883 19.658024 3.100699 149 143 129
1.367856 18.028866 3.845941 56 54 55
-2.702144 17.390495 4.317876 98 69 51
0.949184 18.144283 4.405192 60 58 61
-4.143353 17.751318 4.416218 120 98 83
-3.181164 17.671448 5.536832 26 26 24
-4.824139 21.364311 6.701564 122 115 99
1.928328 15.762802 6.340172 126 120 105
-3.701136 20.319307 7.324730 59 53 37
1.504479 18.000757 3.600386 56 49 46
1.708530 18.479334 4.357054 58 54 52
-0.063553 17.542620 3.972985 136 106 87
3.247658 23.195040 -6.166270 203 194 185
-1.777932 17.908880 6.153821 26 24 25
-3.228027 17.521034 5.097366 9 6 6
-2.223346 17.434429 5.481629 30 29 30
-3.037979 20.903313 -5.764332 211 171 147
0.105203 20.725639 -4.891598 244 200 175
5.097340 20.974279 -6.118595 213 206 200
5.097340 20.974279 -6.118595 213 206 200
-6.423877 23.788454 -7.178319 0 0 0
-4.967331 21.078594 -2.367816 108 104 93
-3.930061 18.154808 5.144028 9 6 1
5.747101 23.406153 -6.532595 203 205 200
-1.611673 17.193024 4.977461 60 51 51
5.068719 22.659674 -6.056825 162 159 154
1.346313 18.188686 3.720129 84 80 77
0.723890 21.059111 -5.871428 216 200 187
-5.558093 22.606560 -5.731482 157 147 137
1.375617 23.157898 -4.315351 162 147 140
-0.997450 17.670601 2.491312 160 125 103
-3.373297 17.864447 3.060809 191 161 153
2.236940 20.401281 3.532425 140 133 125
-0.861744 17.124582 3.849791 170 127 110
-3.852055 17.312927 4.314064 104 73 53
-4.085767 17.733173 4.354597 58 38 24
-0.708245 17.212099 4.522375 126 99 90
-2.005492 17.514803 5.330713 34 32 33
1.979451 19.378859 4.450371 50 44 43
-1.073219 17.707293 5.719303 1 0 0
0.718609 20.675852 -3.767798 0 0 0
-1.619864 18.178659 1.311824 247 202 179
-1.728050 17.907150 2.383907 217 165 143
-3.005688 20.956020 -5.816120 210 173 149
-0.482458 18.374792 -3.044328 239 188 157
3.949583 23.648314 -7.575366 225 216 209
-1.936974 17.726772 -2.270307 162 123 94
3.509074 24.314550 -5.930965 168 169 161
0.715689 19.492619 -2.849158 188 143 120
-3.914984 18.743727 -2.040295 185 150 128
-0.073874 19.966183 7.392776 144 138 122
-5.055721 19.387850 0.885048 169 128 106
-5.055721 19.387850 0.885048 169 128 106
2.318175 22.023676 2.933115 25 14 8
-2.819609 17.865679 4.837350 99 78 65
-3.883935 18.146011 2.700269 102 78 68
-1.934258 17.419998 5.263994 3 2 0
0.772145 20.321095 -5.570410 213 194 184
4.035661 23.025734 -5.871732 179 176 171
-0.633677 17.221674 4.276688 103 73 65
1.711283 19.304136 4.638737 52 48 49
-2.134697 18.252071 6.558128 19 17 18
0.799506 21.664789 -4.975384 213 173 145
-4.734703 18.228348 -0.048300 147 128 113
2.852966 22.742537 0.433450 234 171 156
-0.722858 18.339891 1.461122 173 116 107
1.335591 18.055920 3.710539 89 80 78
-3.324217 16.913465 4.346961 154 114 91
2.485350 22.003479 4.667562 116 109 102
0.662746 17.908197 4.717991 53 48 50
-1.821452 17.878286 5.158426 13 12 10
-1.527758 17.245476 5.270119 4 3 0
-1.092499 17.482967 5.535516 3 2 1
-1.873672 17.535664 5.635139 23 22 20
2.128748 23.174927 -5.291221 213 203 193
-1.631354 17.860592 1.535595 251 212 184
-3.752963 17.893053 4.828494 37 17 8
1.622864 21.860924 -5.945178 205 192 183
5.466601 22.863804 -7.096972 208 203 199
-3.347801 16.294918 -2.002747 0 0 0
-2.016540 20.037182 -5.321672 191 146 125
-1.619284 18.030764 -3.334191 223 175 152
5.535427 22.498377 -5.885190 159 161 150
0.048846 17.573063 4.774181 16 12 11
5.052489 22.526945 -6.563325 203 197 184
2.520125 22.396093 3.516141 143 136 126
-2.793471 17.139023 4.299092 105 74 53
0.919690 18.017998 4.434333 49 43 45
-0.051866 17.666168 4.613181 37 29 26
0.388200 18.035563 5.251867 24 22 23
0.946406 22.313505 -4.249853 139 111 94
-0.084907 20.752939 -5.744708 242 200 173
0.222254 17.566086 3.869608 90 72 63
0.072621 17.539835 4.912237 40 36 37
-4.463774 20.393324 5.765954 8 3 0
-2.179607 17.867411 -1.697848 178 103 107
1.507349 22.401154 6.954852 144 139 120
1.293945 20.985577 -2.568512 168 153 136
-0.740396 17.426661 4.730386 83 70 61
-3.300853 18.078819 2.584854 166 125 105
-0.174264 18.705612 -4.963591 178 147 126
-1.627791 17.413500 -1.056110 215 157 137
2.488033 21.900690 3.481519 144 138 125
0.988669 18.093475 4.582247 43 43 41
0.982416 18.070042 4.578264 43 43 41
-1.523790 17.291374 5.178199 31 27 26
-1.532544 20.165033 -5.215228 236 194 169
1.695986 22.128382 -5.659904 236 224 212
-0.903980 17.944181 -1.818236 202 127 121
-1.845760 17.419691 -1.063447 236 179 159
-0.129160 17.457066 1.874085 57 29 19
-5.709693 20.541672 2.514994 123 119 103
1.106312 18.016163 3.893963 48 44 45
-0.751792 17.211319 3.849446 165 129 104
-0.560154 18.077709 4.146451 176 140 119
-1.507067 17.184515 4.243090 118 101 94
0.770131 18.092003 4.563770 25 20 23
-6.387357 24.169340 -5.645582 134 132 120
2.479104 23.480547 4.900283 26 21 18
-0.740514 17.205160 4.306565 158 126 107
-3.477796 17.731428 4.795102 85 63 50
-2.419240 17.543730 5.241529 49 49 51
-0.819282 21.157694 -6.541732 195 160 138
-0.822058 21.499554 -6.684616 195 160 138
0.244103 17.496571 3.811059 100 74 59
-1.337332 20.230787 -5.180206 243 201 176
1.324144 21.609013 -5.583557 241 224 214
-2.420132 17.816347 -1.717086 172 114 108
-6.214253 22.391644 0.088147 197 148 129
-4.463198 18.563940 2.532834 142 108 87
0.879409 17.879206 4.325337 17 11 11
-1.733827 17.226109 4.570620 46 36 34
-6.686301 24.173365 -6.270872 188 180 169
-1.587002 17.302996 0.169873 250 205 189
0.090984 17.312105 3.739672 162 122 100
0.746341 19.106562 -2.667445 160 152 135
-0.763268 18.075966 -0.651755 248 195 177
-0.514019 18.240206 0.953705 237 183 159
-3.819348 18.208879 1.807730 88 54 42
-0.229739 18.267164 1.167618 193 136 117
-0.373094 20.335173 -5.762127 246 205 177
3.314043 23.113047 1.542264 141 141 123
0.180398 16.929296 3.882737 90 73 66
2.322885 21.663696 4.775415 55 48 45
-1.925930 17.380077 5.280319 6 1 1
2.204170 18.290073 6.910457 117 109 89
0.927249 21.280554 -5.804272 241 223 211
2.859547 22.744068 0.090710 243 184 170
-5.786990 22.168098 0.107162 180 122 106
1.305924 18.086658 3.573549 20 11 4
0.382633 21.151855 -5.630093 193 157 126
2.596714 22.010199 -0.538374 158 139 124
-5.816228 21.905123 -0.253919 205 153 131
-0.213571 18.267923 1.849616 54 21 14
-7.027439 25.417316 3.350839 112 104 89
0.919662 18.045343 4.553316 30 24 26
-0.021809 17.611691 4.627739 32 26 26
0.590400 18.001972 4.701672 54 50 51
0.922102 18.029980 5.242792 38 30 28
-2.058734 17.654871 5.377421 4 2 3
-2.388220 17.431395 5.397136 31 29 30
-2.572842 17.627426 5.622201 22 21 17
-3.307489 20.401636 7.431472 34 23 15
-0.337181 19.171089 -5.246620 191 157 135
-3.981293 17.707949 4.375003 56 43 34
-1.017175 17.280136 4.486040 43 33 29
-4.887449 22.628891 -6.326256 82 58 45
-3.168773 18.369434 6.172236 2 1 1
1.182321 18.145864 4.132199 37 35 35
0.390348 21.011330 -5.353757 241 202 174
-3.200004 17.365860 4.494742 114 92 77
-1.284902 17.344193 4.808685 39 28 23
-2.854927 17.448622 5.131999 68 65 62
-2.172188 17.734936 -1.666203 171 100 101
2.000060 21.140882 3.220090 25 15 13
-2.268240 17.751194 4.151523 187 149 130
-1.446891 21.564333 8.286987 135 128 110
-3.017628 17.708834 3.102856 234 192 179
2.007524 21.021763 1.932133 61 44 36
2.019437 21.050297 1.913862 61 44 36
-0.109387 17.817991 4.252993 90 76 75
-4.254480 27.417040 -8.616117 166 128 107
-6.190616 22.135859 0.369160 226 183 164
-3.791493 18.628368 1.014626 219 169 142
-1.188821 17.258101 3.820446 181 139 115
-1.912254 17.251015 4.770110 59 53 53
-1.687425 17.499180 -1.576610 154 76 76
-5.677220 22.181255 0.462616 164 125 108
1.192525 18.237226 4.138428 62 60 61
4.804143 24.184647 -6.284561 150 151 143
-5.975969 22.009493 -0.072762 197 148 131
0.159783 17.389587 4.085532 79 70 67
-1.176399 17.333467 4.587443 46 35 31
-0.204544 17.571327 4.686801 63 62 60
-2.878877 17.452087 4.813517 27 17 15
-0.039724 17.908068 5.568733 29 28 26
-3.609943 19.376490 6.729365 34 34 34
-3.609943 19.376490 6.729365 34 34 34
-0.174264 18.705612 -4.963591 191 160 139
-5.358055 21.573200 -5.556901 162 152 140
-3.941939 19.750443 6.641315 12 10 11
1.768939 21.199991 5.678093 15 7 5
-0.248541 18.180212 5.867595 30 26 25
-1.423323 17.160128 4.656728 86 76 74
-2.573185 18.031185 6.274230 21 19 20
2.152878 21.964865 -0.054195 186 118 109
-0.502633 18.248816 1.227342 180 123 106
-5.549488 19.426462 4.183624 60 51 36
0.387297 17.651463 4.380857 41 36 31
-3.280815 17.414291 4.492589 41 23 9
-1.505891 17.055922 4.468913 51 46 42
-2.440696 17.614176 4.858202 23 17 13
-2.879661 18.583235 -3.533899 156 118 95
-2.230068 17.357155 5.120274 28 26 27
-3.437287 18.098877 1.906286 52 28 16
0.236667 17.500925 3.827877 90 71 60
-5.492767 20.459890 1.361889 133 95 75
0.845002 18.291296 4.238371 75 60 52
1.831811 19.428749 4.458206 17 12 8
-5.791959 22.927317 -6.061373 57 55 51
1.388138 21.940786 -5.356839 225 207 195
-2.275225 17.880852 -0.629380 198 151 128
-2.454071 17.659534 -0.260453 176 123 105
3.142390 23.045815 0.809455 160 144 128
1.267917 18.066601 3.898898 65 57 55
5.191301 22.459856 -7.770631 207 198 189
2.515206 22.776285 -5.454489 208 201 191
-0.205171 17.585978 5.063463 32 33 28
-0.657749 19.786003 7.304567 117 110 92
-0.482254 20.337633 -6.385805 229 210 195
-0.462610 20.481930 -6.075348 188 155 133
-4.308535 19.290638 -2.362016 135 122 103
-7.896436 24.012527 -6.569569 137 134 125
-1.960357 17.689505 -0.519846 199 153 130
2.252774 20.879169 2.930399 140 131 116
2.087536 22.525682 0.335349 210 155 135
0.776554 17.870077 3.795489 78 73 65
2.452197 22.312456 1.356839 219 163 141
-0.160530 17.542856 4.333631 93 83 78
2.441741 22.355200 1.370091 219 163 141
-3.292408 17.405148 4.827871 22 14 11
-4.194474 18.396553 2.937017 114 86 71
0.301668 17.396845 3.638439 152 112 91
0.714865 17.804234 3.999039 105 92 83
-3.148085 17.185852 4.210112 132 92 66
-3.917282 18.087191 4.499695 103 76 67
-5.970917 23.871227 -5.747277 169 163 153
-3.095667 17.425888 4.504781 61 39 28
-0.468557 17.267014 4.137869 158 124 107
-0.456307 17.280544 4.450358 119 93 85
-4.568681 20.036785 7.101961 121 108 89
-3.153754 18.251148 6.225077 45 43 44
1.141147 21.045668 -6.435919 192 178 167
-5.887470 20.961887 2.386136 122 113 98
-0.356361 20.671280 -6.063538 184 151 128
1.525196 20.818659 -1.828083 158 137 120
1.656989 21.311323 4.790568 56 50 50
1.665486 23.827402 -4.778769 187 181 167
-0.657463 17.954689 -1.084338 226 184 161
-0.228937 18.223118 -0.820484 237 176 155
2.870045 22.316877 0.349211 0 0 0
2.021683 22.439888 0.737575 195 143 121
2.166713 22.256058 0.994342 212 155 135
-3.867540 18.097036 2.014639 164 116 93
-3.580009 17.971912 2.689748 85 61 49
1.671252 17.920433 3.713885 17 7 5
-3.693166 18.045654 4.579945 86 55 34
-5.465353 19.240767 4.170503 59 50 35
1.618604 18.352991 4.053278 50 47 44
2.288105 21.305151 3.436256 29 20 12
-0.071854 17.302433 4.047702 148 119 103
0.283000 21.108656 -5.716860 189 156 133
-3.202502 18.578838 6.396945 9 6 5
-0.561967 17.301212 4.328745 109 88 76
-0.917083 17.373133 5.010399 30 27 23
-5.115037 20.058201 -0.064307 175 133 111
-6.058797 22.006746 1.414402 189 134 113
0.345941 17.709459 4.857860 34 30 31
0.212668 17.362278 3.915676 82 66 60
-3.428590 20.714556 7.750928 141 126 102
0.752407 17.998318 2.043303 204 158 134
-3.559569 18.114460 -5.852819 0 0 0
-2.889138 17.389343 5.189975 8 7 7
0.286332 20.119368 -6.719858 226 212 199
0.376110 20.217005 -6.970559 186 177 167
2.512214 22.298782 2.884363 158 150 136
-4.772977 20.385862 -1.752709 140 118 100
0.785219 18.485134 2.659856 169 140 124
-3.125988 17.537249 4.986135 44 40 38
0.270304 21.020634 -5.546726 241 204 174
-2.759355 18.244682 1.661691 145 98 83
1.815427 19.254196 4.573977 16 7 8
-0.466108 17.244759 4.574567 61 49 46
1.815427 19.254196 4.573977 16 7 8
-0.097919 17.506075 4.570647 69 63 63
-1.392060 19.720465 -6.535568 235 217 203
-7.345408 22.898262 -7.866149 200 192 189
3.061004 20.636728 -7.086359 232 225 215
-4.627102 18.735224 -0.064552 189 142 122
-0.264346 20.833597 7.981193 127 121 99
-4.530987 19.283779 5.230036 10 2 1
-1.633542 17.307400 4.439297 96 88 82
-1.758687 11.992634 -3.740885 0 0 0
-5.525496 21.019258 -0.705928 129 119 106
-5.503622 21.119511 -7.263193 197 187 178
-5.850185 21.882608 -6.774692 166 152 139
-2.113219 19.526302 -6.926236 226 214 202
-5.503088 24.744173 -5.413406 117 118 109
0.424134 19.554224 6.826060 127 116 96
-3.354486 19.521570 -3.565287 158 120 97
3.282576 22.827999 -5.594890 165 162 153
-3.991634 21.538733 -4.490375 167 130 109
-3.842267 21.494083 -6.992169 217 184 167
2.381175 21.340721 5.405162 157 152 133
-1.852272 19.467199 -6.723605 232 219 204
-1.896837 20.675034 7.450865 2 1 0
1.031703 20.583027 -7.056298 232 228 219
1.827598 20.320499 -3.237810 160 158 143
-2.264044 17.478336 5.094250 38 40 39
2.671435 22.325155 -0.567642 113 104 94
-6.595720 21.540985 -7.768581 229 221 218
-0.533771 17.240440 4.574204 103 86 76
-2.050100 17.379519 5.292207 22 22 22
-2.356590 17.323112 4.791774 26 20 21
-3.476095 18.022522 3.008156 147 122 115
2.033875 21.019810 2.311954 50 35 28
-5.347609 21.298655 -0.715906 185 148 130
0.256875 18.484350 1.585504 182 152 147
1.487671 23.547686 -4.641846 203 195 182
-2.289427 19.467810 -7.136620 176 162 151
-0.115475 20.300932 -5.811202 234 211 187
2.917093 22.910419 0.338029 240 191 175
-1.664524 17.951408 6.158728 22 20 21
4.429466 22.709124 -5.784816 201 202 196
1.210539 21.373478 -2.829745 181 145 123
-3.275251 17.213518 4.242765 181 137 112
-6.275820 23.565832 -5.705899 134 134 124
-2.212687 18.007151 4.286712 175 139 123
1.090483 23.783714 -4.372496 160 146 137
-0.364354 20.587093 -6.278246 244 228 215
2.462752 17.067318 -3.028518 139 140 126
-8.984997 23.093422 -6.851769 141 143 132
-0.246244 17.601410 5.357430 25 21 20
-0.169525 20.491741 -6.209921 233 219 208
0.384972 17.655100 3.812893 182 138 113
-2.832929 19.469328 -6.925704 228 214 202
2.462575 21.885443 -6.654531 217 210 200
-4.295065 18.959143 5.876840 7 3 0
1.714577 20.896980 -7.612707 231 224 216
-3.487696 20.806877 -4.950441 178 142 118
0.947137 22.383242 -4.422359 202 162 137
0.670395 20.953041 -4.043356 168 136 114
0.621121 17.689657 3.999855 89 68 58
-7.424535 23.869446 -6.544910 197 194 186
-2.784285 18.265335 1.378563 182 134 120
1.433562 18.350033 4.180821 19 13 16
0.584319 18.702625 -0.947971 228 176 152
-5.794868 20.233912 3.720299 124 115 101
-4.425935 18.528618 3.054140 0 0 0
-3.057021 20.074213 -7.086850 233 219 206
0.935779 18.584335 4.415124 27 19 15
-6.330831 21.222408 -7.035752 0 0 0
-3.517864 19.090109 -3.373249 0 0 0
-0.712462 18.802456 7.116210 122 114 93
-5.835083 21.981337 1.166222 175 129 109
1.599320 22.798496 -4.971816 215 196 186
4.862761 22.051067 -6.151323 210 204 196
1.269673 19.495924 3.516776 76 50 31
-2.976043 20.500988 -7.143151 236 222 209
-2.741836 18.319424 1.620635 169 121 107
-2.970624 19.446556 7.284440 132 122 97
0.939274 20.698183 -6.620750 201 187 176
-7.107513 21.399405 -7.528437 220 212 209
26.618996 129.644272 19.760426 0 0 0
-5.564644 21.034023 -7.195228 170 160 150
-4.363792 22.435053 -7.250962 189 166 151
-0.645110 17.198210 4.283512 90 66 53
-4.008751 21.535364 -6.828474 206 172 151
-0.894895 19.158098 7.155591 98 90 71
-6.635248 22.512636 1.024360 125 112 95
0.010342 19.842953 -7.137097 194 182 168
-1.555371 19.439417 -7.133555 237 229 216
1.894506 20.316555 4.728162 39 35 36
-2.354676 18.148949 -6.910860 165 149 136
1.348353 22.147217 6.413280 14 11 6
-3.158313 20.414387 -5.241357 194 154 129
1.616198 25.669973 4.439873 0 0 0
-1.736687 17.974083 3.275537 170 131 116
0.774067 18.654890 2.609035 114 85 71
-2.151161 19.217375 7.111249 28 20 7
-2.500527 17.332644 4.722107 32 23 18
-3.131082 18.254585 1.699065 76 60 60
-4.835259 22.538088 -4.649151 122 118 106
-0.103175 20.304859 -7.205120 225 211 202
-6.211976 22.008984 4.333517 19 12 2
-1.872974 19.558815 -6.751010 233 219 210
2.461472 22.318407 -4.860701 0 0 0
-5.597783 19.815712 3.879535 72 63 51
-1.095101 19.786747 -6.268501 164 140 123
2.786184 13.005151 -4.244135 144 145 131
-1.985391 17.264708 4.860076 17 11 11
-4.249764 18.195566 4.983885 28 23 17
-4.254611 18.221937 5.006430 28 23 17
-1.182264 20.033518 5.356833 61 46 43
37.711678 104.952957 15.634945 133 124 107
4.613446 22.513935 -6.267181 0 0 0
-0.950103 17.172110 4.928168 31 26 22
-6.011993 21.912306 3.184534 19 10 1
3.448104 22.469265 -6.196336 211 204 194
-4.244803 18.331545 6.249782 140 127 108
-5.408579 22.831701 0.176048 0 0 0
-4.733647 21.065903 -3.765140 152 150 137
-1.243204 24.389759 -7.974510 133 124 115
5.780266 21.682261 -6.879939 213 206 198
-5.397674 22.160156 -6.578348 170 158 146
-0.640993 24.436577 -8.036038 0 0 0
1.899527 18.238413 3.676627 124 115 98
1.332393 21.709469 -6.137155 0 0 0
-0.291241 20.303555 -6.686850 234 217 205
-6.136855 22.353920 1.179735 233 181 159
-2.948227 17.254305 4.557549 83 65 56
1.348971 19.066885 5.539489 85 79 66
2.115905 23.255306 -4.990341 142 139 130
0.491562 18.262545 5.383273 14 9 7
-0.618624 17.272722 4.887372 22 16 18
1.973423 19.772993 4.025246 53 51 52
0.714961 25.967394 -8.638398 247 235 221
1.226361 17.945959 4.141615 47 45 46
-1.239988 17.327543 4.860123 26 20 20
2.078818 20.757122 3.034636 32 23 15
-5.680957 21.168213 1.148295 190 144 121
1.766706 19.677643 4.923084 29 21 18
-0.219476 17.951374 4.215401 120 92 73
-4.218452 21.252159 7.364550 138 130 111
-5.269866 20.975355 6.357323 143 137 115
3.046213 20.180098 -6.018821 0 0 0
-3.063198 18.190897 2.065846 204 158 135
1.981017 18.534443 3.670707 148 142 124
-2.793744 17.356628 5.257438 25 21 20
-1.675961 17.056126 5.032165 34 28 25
-3.240253 17.355202 4.777938 57 56 50
3.789243 21.181551 -5.757941 198 191 181
-5.940311 22.693958 -6.084169 182 172 162
-6.327739 26.099218 -7.525621 160 148 136
-3.482569 18.298183 6.105514 5 3 4
1.120409 18.720779 5.509927 64 58 42
-3.093623 17.494251 4.577196 34 17 9
-1.526176 21.468653 -6.947804 0 0 0
-4.526202 20.619713 -6.649334 209 196 185
-0.616472 20.230675 5.460555 39 24 21
-0.650566 17.332586 4.773435 54 48 45
0.929921 17.745588 3.372000 57 55 50
2.402294 21.441381 1.837226 0 0 0
-5.623966 18.382994 -0.647593 156 137 122
-5.638942 25.343428 -7.178220 171 163 152
0.851668 17.589079 3.651640 81 79 80
-5.909464 22.014877 1.601706 218 173 152
0.981023 20.829365 -6.633407 214 200 187
1.750882 19.402596 -6.762753 223 217 205
-4.251971 21.401449 -2.985364 125 100 77
1.268886 18.609062 3.193067 0 0 0
-4.954648 19.731306 3.048773 177 131 105
-1.410999 17.627701 0.813274 166 126 109
1.806820 20.741360 -1.298687 155 149 133
0.366794 18.407637 1.964199 140 97 77
-3.528549 20.785662 7.458112 28 16 7
-5.213531 20.837027 -6.590115 171 158 149
-0.824076 17.693256 5.628666 26 25 23
-0.825227 17.697655 5.630309 26 25 23
1.067660 18.865604 5.787541 119 112 93
-3.883834 17.799376 4.850635 41 28 19
-3.055610 17.040302 4.313333 60 36 24
0.279621 17.622316 3.817317 91 73 61
0.941320 21.905020 -5.058424 0 0 0
4.197471 19.515474 -5.599881 196 184 172
-0.944899 20.246675 -6.417996 236 213 197
-2.103454 20.067253 -6.761000 0 0 0
-6.159424 22.753609 4.094141 12 10 2
-7.368513 36.176369 5.874431 17 10 1
4.343205 22.124069 -5.523824 155 155 143
4.597751 19.829126 -5.535367 199 199 189
-1.349054 17.406090 4.915566 46 40 40
-4.118753 18.357775 2.636704 171 138 121
-6.213981 22.553352 0.201532 231 183 161
-0.623818 20.046511 -6.419000 241 231 221
0.030011 17.634634 4.254760 65 61 60
0.481557 17.567951 3.910002 35 23 20
0.410707 17.501465 3.534086 142 107 85
-0.870553 17.904209 4.994456 18 7 5
6.190798 24.137100 -6.963445 168 160 149
1.796672 19.234865 5.252970 132 124 105
-5.672462 21.319674 2.082590 28 17 11
0.115974 21.015026 -5.682798 163 138 119
-2.893173 17.679661 4.811882 32 20 15
0.124381 20.545513 -6.106767 218 207 195
-4.218133 17.722019 4.383325 38 21 7
-2.593031 17.208912 4.281481 154 126 105
0.644250 20.515255 -6.534444 147 139 133
-4.057834 17.594164 4.374859 41 22 10
2.710085 22.668545 0.875075 248 193 175
-1.545528 17.216784 4.154075 156 130 119
-1.149213 17.831802 -0.425973 185 123 107
0.689504 21.630713 -5.413711 172 139 116
2.309818 21.271872 3.677518 17 12 5
-0.030670 17.569630 5.125515 51 47 48
1.759615 21.522470 -0.444466 156 117 99
-0.745040 20.173128 -6.174176 197 163 142
-1.026600 17.213844 4.337107 53 40 31
1.988829 19.395586 3.392353 111 101 89
2.231800 16.847038 -1.547349 163 157 143
-0.081701 20.306499 -6.212614 242 226 210
1.379172 19.723473 -4.338598 0 0 0
-6.061523 21.905920 4.163454 14 8 0
0.746753 18.489639 2.626765 122 88 76
4.388669 26.622826 -8.011196 0 0 0
3.671707 23.775723 -7.354198 0 0 0
1.348305 20.136002 -2.296566 149 144 127
2.205482 21.692062 -0.991133 151 141 128
-6.250267 22.073065 0.065292 66 52 47
4.697793 22.582771 -5.712631 170 170 157
-5.720373 21.076233 -5.518231 141 134 124
-5.371361 23.273623 -7.079300 105 88 81
0.919218 20.698923 -6.622561 198 181 171
-4.611691 20.153118 -6.763635 176 161 150
-2.959370 17.303568 4.509696 83 65 50
0.970562 21.445654 -6.699015 196 182 169
-0.665215 16.849735 4.422639 59 38 25
-2.518240 17.745676 -1.337240 195 149 126
0.771834 21.381931 7.460001 127 117 96
1.773975 22.129686 6.547144 0 0 0
-8.014176 24.316216 -6.208805 143 140 131
0.911647 18.368679 3.990106 106 86 73
1.869336 22.646164 -5.251462 193 181 170
-2.622652 20.921806 -6.195809 175 147 126
0.806127 18.709990 2.527590 158 121 104
-5.769263 21.188351 2.073022 182 147 127
-2.753774 33.128445 -8.732377 209 178 153
-4.765942 20.250120 -6.946070 178 168 158
0.118906 19.965034 -6.989877 227 213 202
-2.394372 19.433260 -7.137904 181 164 154
4.038333 21.567095 6.067986 136 128 109
-2.924274 17.272730 4.881416 37 35 36
-4.330404 19.916981 -7.395007 224 210 197
-3.077864 19.127996 -7.135897 170 153 143
-3.203125 19.307428 7.113184 127 118 100
-2.792791 19.966314 -6.604514 170 138 117
2.693916 22.775633 2.889286 142 134 115
-0.865802 17.177128 4.253943 159 125 105
0.996393 18.674473 2.484211 132 100 87
-0.281105 10.570730 4.535650 112 103 86
-3.523539 18.111399 4.608015 77 50 37
0.788421 17.741266 3.763157 110 92 80
0.468458 18.376831 1.751922 193 141 114
2.039459 22.404852 0.712631 213 157 135
0.850797 21.405931 -5.351762 226 201 182
2.762776 22.774641 -5.676970 226 218 207
-1.840228 19.595114 -6.996683 172 156 143
-1.467190 19.853645 -6.909025 175 157 143
-4.452057 19.555542 -7.099512 209 196 185
-0.276711 18.331528 6.702748 126 113 97
-3.410253 17.479300 4.762076 7 1 0
-5.959707 21.496191 -5.761429 142 139 130
-0.783847 18.284687 1.591636 129 68 50
-6.216951 21.414768 4.254838 127 119 98
-3.294751 17.889986 2.748288 70 58 55
1.601599 21.207504 -6.442528 230 220 211
-2.928891 17.580635 4.722101 29 19 10
-2.852372 20.355440 7.927485 0 0 0
-4.896320 18.470743 4.983111 131 123 102
3.407326 23.598797 -7.906831 0 0 0
-3.117558 18.428204 3.749509 232 182 147
-1.430235 19.896154 1.552454 239 187 163
1.747245 23.418152 -4.820086 186 175 166
-1.138914 17.447123 -0.292613 103 51 35
1.912172 21.124279 0.032571 198 148 127
-3.119190 17.434443 4.650090 29 15 8
3.063097 21.659719 -6.614499 173 163 153
1.352176 22.058121 -5.201011 192 174 163
-6.459052 20.989071 -7.976598 226 219 213
-5.469225 19.675358 3.684994 40 33 22
-5.571686 19.736761 4.183992 32 26 14
-6.019595 24.006107 -5.594882 122 116 104
2.690715 23.106428 -5.490239 196 189 179
0.174860 20.543507 -6.323634 235 222 205
-1.164243 20.080517 -6.881902 240 222 208
-2.373535 19.311758 -6.984053 221 205 190
-5.260345 20.473862 -7.385131 180 174 165
-4.057618 17.510090 4.291841 30 23 16
0.937388 17.673189 3.935472 77 64 55
-6.052412 20.988731 4.058940 53 43 34
-5.453076 20.352102 2.042564 80 66 55
-5.952149 21.621298 0.897311 182 131 112
-6.405362 23.913986 -6.005273 180 172 163
-1.456874 25.642218 -8.473296 189 177 167
-0.927360 17.807804 6.339152 17 9 6
2.843800 22.714228 1.887588 191 111 97
2.601567 23.440441 -5.686144 215 207 196
2.655966 23.039598 -4.966793 0 0 0
-8.754376 26.997171 0.040171 0 0 0
2.006402 22.391981 3.889863 13 5 2
2.765405 22.202873 2.132916 111 100 89
-2.301377 17.223568 4.951455 9 7 8
-0.816904 17.330927 4.582427 65 45 33
-3.530473 19.329124 6.754730 26 21 17
0.703828 20.083910 -7.383373 0 0 0
0.696886 18.413267 2.621621 123 91 77
-3.601239 17.772295 5.143779 37 32 28
-2.747886 20.461893 -5.868661 222 182 157
-2.112642 17.264717 4.735022 32 27 26
-3.384313 42.335693 -11.842201 0 0 0
-3.817978 18.212244 1.809602 82 46 33
0.485307 18.386990 2.507452 192 159 142
5.032448 24.091303 -6.497318 199 191 179
2.132633 22.288286 5.745551 117 110 98
-1.732437 19.848824 -6.665008 232 212 200
3.276965 22.876032 1.209631 104 93 79
2.952132 22.886644 0.611209 233 184 167
2.696021 23.613092 -6.548907 140 131 125
-1.428506 19.815081 -6.770578 229 215 202
-2.348276 18.381229 6.409503 12 8 3
-1.818699 17.180901 4.567860 84 74 72
-1.417710 19.637478 -6.852682 163 147 134
-5.769776 20.472734 3.018777 115 107 87
-2.511599 17.452906 4.777992 37 30 22
-3.626488 20.326416 -7.000457 219 203 194
-0.959189 18.026150 0.308091 220 159 138
-6.206441 23.299858 0.308915 0 0 0
-1.176858 17.611769 -1.745625 232 143 147
-6.147082 22.719038 -0.641722 136 117 103
-5.203318 19.788347 -4.497645 0 0 0
1.587108 23.526030 -4.528346 158 150 141
-3.886329 18.981579 -7.031613 169 150 136
-3.790060 18.128220 2.846319 132 107 101
-0.705629 20.042023 -6.090555 185 153 130
-1.962901 19.568647 -6.937551 218 201 191
1.074870 23.227476 -3.825483 135 127 108
-3.397448 18.319958 1.526047 0 0 0
0.008170 24.778997 8.866553 0 0 0
1.695896 21.329651 -1.217680 153 132 115
-6.996875 27.941452 -5.527098 0 0 0
5.425421 22.124195 -6.266304 194 189 183
1.896580 23.837921 -4.662984 160 154 142
-0.102933 20.844313 7.772533 132 121 98
0.835872 18.091763 5.702340 116 108 85
-2.320328 21.588451 -7.256133 225 213 199
1.916532 21.129953 4.026755 10 2 0
-3.613837 18.235672 1.389249 166 110 93
-5.581914 19.471708 4.627387 129 120 103
-1.587336 18.035379 -2.973282 240 189 160
2.565667 22.545296 0.066816 247 186 167
-0.614172 20.133324 -6.481896 241 229 217
-5.825064 20.614477 3.730958 29 20 11
-0.484835 17.159845 3.996142 121 88 70
4.014499 23.118958 -5.719797 165 166 150
-1.858165 19.789120 -6.571692 205 174 155
0.145786 18.272997 1.541085 195 186 180
-1.797503 17.441355 -1.494220 165 100 96
-2.087351 19.632587 -7.065798 186 170 155
1.157761 22.044840 -5.117150 213 195 185
-1.358408 17.569265 -1.486038 181 117 108
-4.291588 18.833332 6.346381 132 121 104
-2.999646 17.139877 4.094507 202 160 135
-3.634195 20.441916 -4.207397 177 140 114
-1.784582 17.332594 4.171509 86 75 69
-3.951853 19.144583 6.457127 90 82 71
-3.671536 21.143627 -4.552018 182 145 119
-3.370674 17.482754 4.541239 92 73 58
2.081847 19.371765 3.716447 41 33 22
-1.527018 17.251652 5.158283 21 20 18
-2.694518 17.853001 2.598783 143 111 98
4.220646 21.847349 -6.095566 238 231 225
-6.946374 23.853840 0.983707 99 87 75
-1.998722 17.662657 -1.474906 155 94 90
2.358030 21.771982 3.192128 35 27 17
1.880869 21.707336 -1.180549 68 65 58
-0.172678 17.419809 4.274289 114 94 85
-5.495892 20.369772 1.128953 209 164 140
-5.634212 19.602962 4.235556 117 112 94
-5.759074 21.935396 0.359128 0 0 0
0.140960 21.076052 -5.784674 209 177 150
1.492223 21.335926 -5.923491 224 210 199
3.413393 22.594625 -6.246446 217 205 196
1.803093 18.559877 4.031179 47 38 33
-3.735756 19.491924 -7.341645 230 216 205
-3.961413 18.789938 6.732028 107 100 81
0.419346 19.580164 6.884347 130 120 95
-5.098580 20.352758 -7.250805 205 196 187
-1.570629 17.107178 4.331069 80 71 66
-6.802807 23.506804 0.577947 0 0 0
1.983811 21.878260 0.015348 241 191 181
-3.996332 17.399036 4.237501 26 21 15
2.028619 21.989532 -4.623332 139 137 124
-4.091721 15.934457 -1.480043 117 111 97
2.352873 22.943708 5.280543 33 27 18
-1.787014 19.883501 7.740798 132 122 97
-4.314568 19.647053 -7.054014 170 156 147
-1.246381 17.253740 3.940237 0 0 0
2.502890 20.730034 3.696226 130 122 103
-1.328146 19.638016 7.629571 134 122 102
-1.486180 17.492294 4.044424 172 132 117
-1.167326 17.658659 -1.956537 234 161 150
-5.098503 22.568911 -3.996991 136 130 118
-7.258615 22.840740 -6.401090 193 191 179
-0.575823 19.468874 7.323312 127 118 96
-3.250112 19.654961 -7.246682 154 138 125
-4.890212 21.138266 -6.250863 176 162 153
-2.908446 17.552149 5.137698 57 55 54
-5.552169 21.107441 -1.481548 131 125 109
1.616949 18.247831 3.658664 48 40 38
-1.858717 17.389217 -1.253908 189 126 116
-1.855109 17.266430 4.775680 16 12 11
-5.805042 20.360691 4.269075 83 73 63
-1.878540 18.991505 -7.192285 228 214 201
1.944403 21.355120 3.083946 44 31 23
-2.851746 19.449209 -6.880724 227 209 198
1.524465 22.343611 -4.725144 196 184 172
-0.868341 17.594694 4.114220 177 137 118
-4.959294 19.561289 2.641142 160 131 117
2.711699 19.070736 -6.774222 183 173 164
1.576693 22.052925 -5.477529 229 214 204
0.044719 17.354181 3.907550 105 77 59
-1.409706 17.207087 4.845353 54 49 46
-5.412157 23.870464 -4.690292 129 121 108
-4.078892 19.745699 -7.214345 177 161 148
1.676106 24.154686 -4.565862 0 0 0
1.635653 19.919134 5.609434 111 105 89
-3.692577 19.727938 -7.302330 167 150 137
-4.793900 18.465849 -5.377802 136 132 121
1.317185 19.864939 2.884123 206 155 124
-1.101152 17.133574 4.398543 28 17 11
2.114634 22.055944 5.830862 95 87 74
-1.308002 17.636042 4.578138 0 0 0
-1.058491 17.564581 -0.307362 0 0 0
-3.919986 19.757006 -7.522378 226 213 204
1.667570 20.546978 -1.559466 128 114 98
-1.034539 17.679260 5.618521 44 43 41
-0.101696 17.543449 4.207333 96 79 74
1.198091 21.130449 -6.365057 201 191 179
1.196276 21.391199 -6.400773 202 188 175
-2.006413 20.176285 -5.371308 123 95 79
1.223523 20.891481 -6.313030 201 191 179
1.304605 22.447710 -4.711391 186 170 160
-1.000326 17.576653 5.532712 5 4 2
1.999070 19.448668 4.426250 45 43 41
3.394532 22.718515 -6.696652 194 183 174
-5.649951 20.721811 2.004738 0 0 0
-8.288136 26.095842 -6.667212 0 0 0
-4.013487 18.096941 5.240967 36 35 33
0.138691 20.824699 -5.887421 239 213 196
4.377183 21.878103 -7.172134 189 180 171
-3.263481 18.438513 6.397652 25 20 13
-0.598868 20.173542 -6.183733 235 209 192
0.586724 18.673260 -0.967246 226 178 152
-1.992632 17.343863 4.959916 41 35 37
0.921213 20.565937 -6.588291 201 188 172
2.033176 20.245218 4.362943 31 28 23
-3.655648 20.756651 -7.177152 111 95 88
-0.205523 20.514189 -6.554925 239 221 209
-2.589207 19.139715 7.410150 134 122 99
-0.926863 20.233383 -6.622122 236 220 207
-2.087244 17.215466 4.534655 60 49 45
-0.643881 20.182554 -6.615838 154 138 126
0.423324 20.621868 -6.922537 234 221 205
-3.413641 18.176582 4.705170 124 101 85
-3.885652 18.456934 5.982996 56 49 39
-3.197858 19.135550 6.978270 123 110 93
-3.808499 20.607138 6.797112 32 28 29
-1.076032 17.225115 4.570286 46 36 27
-2.410909 17.535872 2.690473 228 182 166
-0.090128 20.006235 -6.918744 239 225 215
-2.033293 17.361300 4.708027 48 44 43
-3.242304 17.280005 4.419320 57 38 24
-3.566243 17.969881 2.841405 81 67 58
2.074755 19.607346 3.971061 36 28 25
1.739206 22.149233 -5.452955 0 0 0
0.866487 18.869160 2.624236 145 108 92
-0.592292 19.743727 -7.432992 193 182 172
5.255837 22.560621 -6.531656 210 203 193
0.872674 18.520071 2.429117 149 113 97
16.152025 128.185852 19.938766 130 121 106
5.634315 21.647854 -6.510626 209 205 193
1.124038 18.334085 2.390884 182 138 116
-7.842256 26.153301 -6.786147 107 103 92
0.734364 17.500965 3.770922 109 82 65
-0.924826 21.182703 -6.391562 210 176 156
1.060786 20.934244 -6.527304 200 186 173
-2.457495 20.236021 -6.769087 0 0 0
-5.403195 20.817184 -6.973917 165 156 142
2.004298 21.947136 0.354170 236 189 165
-1.654747 19.683039 -7.079337 0 0 0
1.251906 18.014334 4.153721 29 20 20
0.038191 15.504249 -6.552164 225 213 201
2.298789 9.832629 -4.957888 166 163 148
-4.098184 18.699131 -1.107134 182 146 120
3.746642 22.216604 -6.325391 161 151 142
-5.665995 19.938427 3.965955 32 22 12
-3.388395 18.069281 -6.645518 219 203 189
-1.149869 17.558546 -1.284561 195 129 117
-5.615098 21.186357 0.565970 0 0 0
1.426997 23.757236 -4.352514 138 134 122
2.786184 13.005151 -4.244135 144 145 131
2.765172 22.930189 3.725912 136 130 108
-3.137170 21.258682 -7.872730 228 214 203
-5.730689 19.993238 3.816053 123 113 101
6.383371 25.431049 -6.441640 165 161 149
1.664186 21.351370 -3.303244 0 0 0
-2.185755 17.884781 -1.661342 172 97 101
-1.745612 18.802019 1.116401 248 189 165
-0.609487 20.038748 -6.719515 236 222 209
-2.124947 19.311655 7.372895 86 78 63
-1.065093 19.508408 1.189245 242 191 164
-2.630752 20.331263 -5.921103 132 107 93
-3.508675 17.750584 0.040532 253 208 189
-3.205505 21.025320 -6.562301 103 81 69
-2.525741 18.359062 6.546852 29 24 13
1.671210 22.192324 -0.055527 195 148 122
-2.008539 17.217308 4.299674 104 90 88
-5.647790 20.795576 1.409614 187 145 125
-2.638179 20.579487 -6.845703 143 120 106
-0.070748 18.278471 1.768348 158 148 145
1.796246 20.938103 -2.990366 96 93 85
-5.417878 21.314102 -0.905972 76 67 58
0.027082 17.552748 4.640605 59 54 53
-2.066384 19.948324 -6.673304 209 178 160
-0.657302 22.109249 -6.793479 0 0 0
0.534098 17.862986 4.181504 79 60 54
-0.475229 20.554699 -6.108652 189 159 142
-0.516470 20.661282 -6.668263 182 166 150
-1.736083 17.166988 4.056939 84 64 57
12.666091 54.041180 13.057534 108 100 81
2.954500 22.657286 1.748498 178 84 78
1.557251 18.152071 4.224874 50 45 39
-1.279660 20.719368 -6.793781 0 0 0
2.230433 22.096518 -0.229523 252 194 176
-6.900596 24.013277 -0.256720 138 124 107
6.822311 40.431156 -3.011596 136 130 116
1.643518 20.842432 -1.718081 154 144 126
1.480696 22.971443 -4.832659 169 151 141
-4.452574 19.975605 6.918183 103 96 77
-0.991895 16.855368 3.801522 184 144 117
-2.751582 17.688517 5.350963 31 29 30
2.915058 22.508162 -0.342561 0 0 0
-4.233212 18.314920 2.820169 101 74 59
-5.906399 22.319328 -0.241956 0 0 0
0.616044 18.323769 5.410248 26 22 21
1.664280 20.195734 -7.875425 240 231 222
-2.836903 14.477715 -0.616368 0 0 0
4.289722 21.769615 -5.770310 0 0 0
3.131793 20.990622 2.841462 178 172 160
-4.507056 22.204325 -4.297930 122 118 103
-2.432238 20.132713 -4.538072 175 135 111
1.482768 21.613953 -5.846486 230 216 203
1.830492 18.661613 4.033824 65 54 48
2.420590 25.580826 -5.577984 0 0 0
1.927774 19.363007 4.379672 65 58 50
-5.811289 21.466722 -1.328460 0 0 0
-7.019662 24.714161 -6.683481 189 185 173
-1.674174 17.212734 4.307868 66 53 46
-1.227274 17.244633 4.039977 177 142 126
6.437198 23.824541 -7.098298 179 170 161
2.426764 21.535851 3.640528 109 104 98
-1.870284 19.712387 -7.025587 171 158 141
-0.170152 20.587521 -5.767552 242 205 179
-5.597321 20.687164 1.715040 90 63 45
-4.745279 20.128733 -6.948843 0 0 0
-3.530729 19.899963 -6.835409 176 148 132
1.236331 19.662790 2.996593 196 154 127
-40.510921 92.105301 -2.642251 130 124 110
1.946691 20.460947 3.166505 35 24 18
-0.585034 12.462199 -6.016886 234 219 206
-0.925235 17.156740 4.088549 82 67 58
0.980868 21.176083 -5.551832 214 194 183
2.110209 19.070892 3.849056 122 116 101
1.202322 21.650461 -5.575577 217 200 191
-2.598172 21.985666 -6.261695 230 186 161
-3.035268 18.356739 6.291515 36 34 35
1.873007 22.187054 6.169204 130 124 108
-1.475833 21.516613 8.118235 135 127 105
-5.692930 19.991117 5.137203 120 115 103
-5.855170 20.062878 4.416732 119 110 95
5.622391 20.031597 -6.418435 205 198 188
-4.374329 20.025898 -7.409362 223 209 200
-0.348407 18.304235 1.826047 49 22 14
7.166816 38.272469 18.725113 102 89 70
-0.434690 20.500988 -6.376829 231 217 203
-5.517739 19.636459 4.133711 23 15 3
3.112097 24.140736 -5.829607 134 132 119
-2.472735 18.023071 -0.328939 162 111 87
-4.039050 18.277090 2.845002 107 85 72
-6.247318 22.035782 -0.162361 143 129 116
4.430812 22.064152 -6.006380 166 162 154
-1.633705 17.992636 1.461175 125 105 92
0.344803 20.649759 -5.961889 247 229 217
2.486058 22.284082 1.901937 148 112 95
1.165685 20.370739 2.683883 178 137 114
1.121121 21.581377 -5.594278 231 212 198
-2.010810 20.396048 -6.053489 233 189 164
3.149978 22.470354 1.934702 154 129 109
